NCOLS 378
NROWS 32
XLLCORNER -11843234.5907
YLLCORNER 4326606.91629
CELLSIZE 95.656128
NODATA_VALUE NaN
2179.32 2186.97 2154.92 2099.34 2052.73 2029.38 2020.32 2017.43 2019.89 2013.56 1992.44 1975.92 1985.15 1985.33 1968.72 1971.08 1974.31 1966.93 1959.19 1953.73 1949.83 1940.64 1935.98 1936.51 1934.12 1932.77 1926.75 1925.18 1918.06 1904.78 1889.15 1870.01 1857.1 1850.54 1854.15 1836.11 1834.2 1834.92 1834.74 1833.05 1832.32 1831.27 1830.26 1829.08 1827.45 1825.8 1824.29 1823.62 1823.66 1825.2 1827.69 1828.06 1828.26 1828.9 1829.46 1829.92 1830.08 1829.83 1829.78 1829.95 1830.02 1828.86 1827.43 1827.13 1826.45 1825.4 1823.89 1823.62 1823.23 1821.71 1819.45 1818.73 1817.85 1816.9 1817.36 1818.89 1820.82 1821.76 1822.57 1825.56 1825.15 1821.36 1817.53 1817.22 1816.98 1816.81 1816.44 1816.15 1815.83 1815.37 1814.98 1814.48 1813.95 1813.3 1812.95 1812.63 1812.32 1812.01 1811.7 1810.72 1810.03 1809.92 1809.91 1809.91 1809.91 1809.91 1810 1812.13 1811.9 1810.76 1811.58 1812.66 1812.5 1811.79 1812.77 1810.44 1809.97 1810.06 1811.88 1816.96 1817.71 1819.99 1822.74 1821.53 1820.26 1821.13 1821.94 1822.77 1822.74 1821.6 1822.81 1848.12 1884.3 1866 1847.16 1842.47 1840.86 1838.94 1833.08 1823.4 1821.64 1835.55 1834.6 1823.63 1831.53 1836.04 1824.94 1832.51 1824.75 1816.65 1823.5 1828.8 1826.63 1840.8 1833.86 1813.19 1810.82 1809.18 1808.5 1807.16 1805.33 1803.35 1802.42 1797.68 1794.46 1793.19 1792.82 1792.53 1792.24 1791.85 1790.55 1789.52 1790.4 1791.58 1792.53 1794.37 1794.83 1794.68 1794.18 1794.39 1795.67 1796.64 1797.76 1802.59 1805.65 1805.53 1811.94 1812.43 1818.01 1822.26 1822.9 1818.42 1816.32 1820.55 1826.87 1841.78 1844.97 1839.43 1842.81 1852.5 1843.32 1829.3 1837.44 1825.92 1811.05 1811.7 1811.93 1814.45 1817.1 1820.49 1824.69 1832.25 1842.73 1847.4 1858.52 1860.5 1862.43 1865.81 1865.51 1866.57 1864.06 1877.83 1885.4 1882.49 1877.97 1878.94 1875.1 1867.5 1859.6 1858.98 1861.29 1862.67 1863.9 1883.37 1882.54 1894.96 1898.73 1901.68 1903.35 1904.6 1906.52 1908.61 1910.83 1913.84 1915.31 1915.32 1914.34 1901.68 1881.62 1877.95 1881.88 1871.9 1881.78 1887.92 1897.09 1895.22 1880.97 1882.52 1889.11 1880.7 1875.47 1871.79 1867.12 1862.22 1866.95 1869.28 1871.65 1875.43 1871.56 1869.21 1863.62 1870.07 1874.56 1878.63 1884.15 1897.37 1897.83 1897.73 1892.56 1885.73 1885.79 1887.28 1890.55 1890.17 1893.85 1884.66 1888.49 1889.64 1909.72 1915.85 1914.02 1917.1 1921.23 1922.8 1925.9 1932.2 1933.75 1933.34 1934.41 1943.09 1948.62 1958.81 1967.14 1975.84 1983.8 1973.97 1977.36 1983.73 1985.88 1982.05 1978.7 1974.59 1965.28 1961.14 1955.63 1949.72 1947.5 1940.12 1934.29 1933.12 1932.03 1922.37 1923.27 1929 1925.94 1913.83 1908.48 1905.73 1899.02 1908.55 1911.09 1924.56 1935.94 1941.35 1939.43 1942.08 1924.51 1925.28 1927.94 1922.31 1911.26 1923.24 1927.32 1918.69 1920.55 1928.17 1933.5 1940.71 1937.74 1933.09 1929.57 1926.38 1928.29 1917.65 1918.59 1907.42 1917.22 1895.69 1884.05 1879.39 1876.07 1871.13 1866.35 1868.28 1868.12 1874.72 1878.75 1885.02 1880.62 1893.88 1886.01 1905.36 1910.52 1901.47 1890.53 1881.4 1882.96 1875.69
2224.63 2229.44 2175.13 2104.51 2051.98 2028.33 2019.66 2014.13 2011.99 2009.63 1995.42 1993.84 1989.22 1994.32 1975.22 1974.81 1975.19 1968.02 1961.01 1956.16 1953.48 1947.67 1945.42 1943.39 1940.09 1937.47 1930.94 1927.68 1920.95 1906.11 1884.24 1873.39 1864.7 1861.31 1859.05 1845.92 1837.32 1837.24 1835.84 1834.55 1833.51 1832.27 1831.03 1829.51 1828.05 1825.92 1824.36 1823.34 1823.63 1824.25 1825.5 1826.52 1827.2 1827.84 1828.39 1828.7 1828.72 1828.61 1828.6 1828.61 1828.52 1827.86 1826.59 1825.92 1825.4 1824.77 1823.96 1823.69 1823.2 1821.79 1820.2 1819.34 1818.47 1817.9 1817.08 1819.61 1822.76 1823.68 1824.99 1825.54 1829.8 1830.14 1817.45 1817.51 1817.22 1817.02 1817.01 1816.89 1816.57 1816.15 1815.64 1815.24 1814.35 1813.39 1812.95 1812.65 1812.34 1812.04 1811.74 1811.74 1811.07 1812.55 1812.71 1812.83 1813.51 1814.8 1817.34 1818.48 1816.52 1815.01 1814.33 1815.15 1816.75 1818.59 1820.48 1818.88 1815.86 1816.07 1817.35 1820.73 1822.62 1825.19 1826.6 1824.28 1823.88 1824.52 1828.06 1839.79 1828.21 1821.86 1824.31 1840.29 1866.99 1875.55 1851.87 1846.15 1841.8 1831.88 1830.13 1829.61 1827.41 1827.32 1836.96 1836.8 1838.9 1840.39 1838.8 1837 1823.72 1818.55 1830.66 1836.71 1845.31 1845.72 1822.09 1812.9 1814.77 1829.42 1815.73 1807.35 1803.54 1804.28 1801.07 1798.24 1794.48 1793.18 1792.75 1792.39 1792.19 1791.42 1790.17 1789.24 1789.87 1791.05 1792.07 1792.66 1793.05 1793.4 1792.75 1792.88 1793.32 1794.46 1796.03 1798.68 1803.22 1801.94 1805.6 1808.55 1813.35 1817.66 1823.23 1816.03 1812.07 1820.53 1826.71 1835.8 1834.75 1837.71 1844.76 1844.84 1841.91 1833.36 1819.72 1810.87 1810.61 1811.1 1812.8 1815.31 1817.52 1821.54 1826.68 1837.69 1852.2 1862 1859.13 1859.17 1858.08 1850.04 1852.87 1856.58 1854.44 1856.01 1857.33 1855.44 1855.96 1852.32 1853.99 1853.58 1855.04 1861.73 1859.23 1865.32 1871.29 1886.41 1892.03 1896.59 1898.57 1900.17 1901.6 1902.63 1904.5 1907.3 1909.35 1911.53 1913.2 1913.64 1914.1 1889.81 1877.81 1872.96 1875.14 1868.96 1877.63 1886.13 1892.29 1893.18 1874.02 1879.92 1883.62 1883.65 1874.13 1869.75 1865.62 1859.81 1861.94 1862.26 1868.35 1872.52 1866.62 1862.18 1866.5 1874.66 1883.59 1890.38 1893.05 1876.22 1884.93 1883.69 1888.82 1880.44 1877.07 1872.75 1876.25 1878.39 1880.19 1892.06 1905.52 1906.58 1900.98 1904 1908.51 1913.03 1919.49 1927.06 1929.91 1933.65 1938.95 1945.76 1935.78 1937.35 1950.03 1958.43 1967.31 1960.9 1969 1963.45 1971.83 1982.21 1988.52 1987.77 1975.09 1966.42 1961.96 1955.84 1948.33 1946.91 1943.18 1946.97 1942.36 1936.17 1934.13 1933.97 1935.73 1939.53 1935.06 1932.43 1926.14 1918.95 1906.19 1897.51 1911.56 1921.86 1923.88 1932.81 1927.54 1927.31 1918.15 1915.41 1931.09 1922.61 1911.39 1918.36 1916.18 1906.12 1916.14 1915.07 1928.48 1937.98 1939.82 1936.65 1924.12 1913.58 1907.53 1901.58 1898.48 1892.51 1894.64 1888.49 1878.19 1872.96 1875.6 1880.73 1866.47 1865.44 1865.8 1875.91 1872.8 1870.83 1875.16 1887.8 1883.56 1899.96 1901.84 1906.88 1903.32 1895.99 1885.8 1875.45
2248.43 2238.41 2176.35 2099.64 2054 2027.91 2019.97 2014.81 2007.86 2001.33 1996.95 2009.91 1992.15 1998.66 1991.36 1984.28 1978.1 1967.79 1962.24 1958.98 1958.41 1950.94 1951.17 1947.38 1943.92 1937.03 1930.39 1925.85 1921.9 1911.3 1894.18 1890.93 1869.5 1863.44 1861.27 1853.56 1843.37 1838.84 1837.09 1835.7 1834.55 1833.13 1831.76 1830.19 1828.32 1826.21 1824.29 1823.21 1823.35 1823.89 1824.84 1825.48 1826.17 1826.68 1827.09 1827.25 1827.14 1827.07 1826.84 1826.49 1826.19 1825.7 1825.26 1825.2 1825.2 1824.8 1824.29 1823.83 1823.15 1821.74 1820.18 1819.31 1818.76 1818.12 1817.21 1825.96 1831.97 1829.14 1829.82 1828.54 1831.27 1832.29 1827.15 1817.88 1817.52 1817.42 1817.43 1817.47 1817.7 1818.22 1817.8 1818.55 1815.74 1814.12 1813.2 1812.68 1812.38 1812.3 1813.41 1815.59 1816.13 1817.1 1816.96 1816.99 1817.28 1818.39 1820.21 1821.38 1820.57 1818.08 1818.69 1818.82 1821.68 1822.58 1823.87 1821.9 1821.08 1823.1 1824.1 1823.51 1826.09 1827.91 1829.61 1828.77 1827.62 1830.28 1840.35 1859.56 1838.49 1821.89 1824.35 1834.42 1856.65 1879.75 1855.78 1844.44 1836.29 1835.11 1835.21 1833.78 1835.99 1829.18 1835.84 1844.38 1845.18 1844.91 1839.7 1829.34 1822.4 1824.29 1849.41 1857.13 1850.5 1836.07 1817.78 1812.89 1823.26 1847.15 1841.32 1812.31 1803.94 1804.27 1801.53 1798.5 1795.79 1793.18 1792.61 1792.23 1791.84 1790.59 1789.19 1788.88 1789.33 1790.06 1791.26 1791.76 1792.23 1792.59 1792.23 1792.12 1792.42 1793.08 1793.55 1795.85 1799.24 1799.11 1801.64 1810.39 1817.09 1823.27 1824.91 1815.14 1812.01 1821.09 1829.52 1829.24 1837.23 1847.5 1849.13 1842.31 1835.6 1828.22 1811.4 1810.12 1811.56 1812.47 1814.58 1817.64 1818.49 1822.39 1828.84 1842.42 1847.34 1846.05 1838.56 1832.33 1834.27 1833.82 1838.13 1842.27 1842.29 1842.08 1845.24 1847.25 1847.5 1853.57 1859.23 1858.31 1865.02 1871.78 1879.95 1889.81 1890.92 1891.26 1893.78 1895.79 1897.14 1898.35 1899.91 1901.23 1902.74 1905.38 1907.68 1909.08 1911.43 1914.13 1901.98 1883.55 1877.62 1871.05 1868.87 1865.56 1878.72 1880.48 1884.54 1891.58 1872.62 1871.11 1882.98 1884.47 1873.95 1869.29 1867.52 1863.81 1855.33 1856.22 1867.94 1870.94 1861.1 1864.4 1871.45 1880.94 1878.47 1879 1879.26 1871.11 1873.02 1876.84 1879.99 1872.7 1880.53 1885.39 1892.68 1897.13 1897.47 1897.91 1893.89 1896.11 1903.64 1913.29 1911.48 1923.19 1925.03 1930.24 1943.6 1946.58 1946.32 1932.83 1928.08 1937.85 1948.8 1962.58 1954.89 1946.01 1949.2 1958.61 1964.51 1974.77 1990.78 1982.67 1974.43 1969.08 1960.68 1961.25 1956.35 1953.75 1953.62 1955.38 1947.66 1937.84 1948.02 1945.88 1940.16 1939.95 1928.55 1918.92 1924.02 1922.85 1913.06 1897.08 1907.15 1916.33 1924.15 1933.85 1924.87 1920.01 1910.98 1911.9 1915.63 1916.6 1903.75 1906.03 1909.99 1899.75 1909.71 1918.22 1920.2 1920.69 1926.66 1934.14 1924.01 1914.47 1899.37 1896.53 1891.4 1886.89 1882.34 1878.81 1879.95 1883.18 1876.67 1873.95 1871.22 1866.12 1861.6 1867 1866.14 1865.28 1871.99 1875.65 1878 1885.54 1896.78 1903.27 1901.42 1898.32 1894.86 1885.32
2240.84 2231.27 2166.42 2101.49 2059.19 2030.08 2019.39 2013.96 2010.85 2009.97 1998.55 2005.26 1997.81 2000.76 2000.84 1991.26 1975.11 1967.31 1962.82 1958.73 1960.41 1960.95 1957.61 1946.89 1943.46 1938.18 1931.9 1928.21 1923.86 1918.02 1912.51 1895.24 1871.54 1861.92 1854.55 1845.42 1845.43 1840.71 1838.85 1837.7 1835.9 1834.42 1832.25 1830.35 1828.46 1826.33 1824.29 1823.32 1822.96 1823.66 1824.1 1824.83 1825.36 1825.85 1825.97 1825.97 1825.68 1825.45 1824.79 1824.35 1824.35 1824.39 1824.35 1824.37 1824.34 1823.87 1823.65 1823.56 1822.68 1821.03 1819.65 1819.21 1818.51 1817.63 1822.73 1871.27 1859.99 1841.41 1831.76 1830.34 1833.39 1838.81 1843.53 1833.96 1823 1818.02 1817.68 1818.8 1820.07 1820.54 1820.67 1820.69 1819.31 1816.93 1815.72 1814.86 1816.21 1819.09 1824.35 1829.41 1835.39 1830.36 1825.49 1824.29 1823.72 1822.42 1824.05 1824.34 1824.03 1822.58 1823.61 1825 1827.25 1826.13 1827.92 1826.63 1834.9 1837.09 1841.47 1840.9 1832.67 1832.14 1833.9 1835 1837.68 1838.01 1854.73 1882.1 1853.27 1827.71 1825.73 1834.67 1851.45 1869.63 1851.9 1853.01 1847.17 1842.77 1841.1 1838.17 1843.33 1833.55 1844.14 1850.98 1846.5 1831.84 1827.03 1824.57 1823.22 1832.82 1862.74 1856.43 1833.39 1815.46 1814.77 1816.98 1836.38 1851.04 1845.42 1823.95 1806.21 1803.51 1800.28 1797.79 1794.31 1793.16 1792.52 1792.09 1791.16 1788.79 1788.48 1788.57 1788.99 1789.61 1790.31 1790.87 1791.2 1791.41 1791.52 1791.49 1791.69 1792.1 1792.47 1793.02 1796.25 1797.41 1803.96 1813.81 1813.01 1817.3 1820.02 1812.02 1812.89 1817.76 1823.43 1831.34 1844.85 1848.65 1842.32 1840.45 1833.21 1819.47 1809.25 1809.12 1811.39 1812.93 1815.21 1816.87 1818.13 1820.05 1822.06 1823.83 1826.27 1827.58 1829.24 1834.5 1839.82 1843.01 1836.75 1838.5 1844.48 1851.3 1857.06 1848.65 1863.97 1867.89 1884.79 1886.44 1887.04 1883.44 1891.93 1892.41 1892.37 1892.52 1893.11 1894.01 1895.26 1896.62 1898.67 1901.13 1903.04 1904.3 1905.53 1907.59 1910.22 1914.28 1900.17 1878.15 1871.63 1866.89 1864.03 1860.54 1867.7 1873.89 1886.18 1886.13 1869.82 1867.6 1878.57 1887.66 1872.56 1868.04 1861.3 1861.92 1858.76 1852.46 1863.57 1869.3 1858.99 1862.89 1870.47 1876.2 1870.77 1879.72 1872.8 1866 1870.6 1866.77 1870.13 1869.16 1881.78 1894.64 1908.21 1905.19 1899.18 1890.7 1901.68 1908.42 1914.41 1917.93 1923.2 1920.2 1930.51 1946.47 1951.92 1953.72 1933.03 1924.74 1921.72 1936.88 1956.61 1946.87 1937.83 1950.37 1964.15 1973.03 1980.26 1988.11 1982.5 1975.55 1970.54 1966.54 1969.25 1965.46 1966.92 1960.7 1958.35 1952.01 1944.38 1945.83 1943.05 1940.52 1936.94 1935.35 1936.54 1927.52 1915.05 1910.7 1906.91 1902.1 1900.38 1909.36 1917.95 1923.68 1913.11 1918.72 1920.21 1904.04 1902.27 1912.35 1911.16 1894.07 1897.16 1894.34 1903.05 1902.43 1907.06 1913.81 1929.79 1926.68 1915.81 1906.42 1905.45 1896.2 1892.66 1888.55 1889.85 1892.17 1897.75 1889.77 1885.34 1880.37 1880.19 1875.07 1862.29 1858.72 1859.17 1858.73 1864.59 1865.29 1877.27 1875.05 1888.21 1898.3 1900.13 1889.68 1879.01 1868.09
2258.53 2251.09 2180.74 2116.9 2069.06 2037.08 2022.51 2017.97 2020.81 2015.72 2009.7 2009.57 2001.81 2002.11 2000.13 1985.9 1972.94 1971.11 1969.94 1963.82 1963.48 1966.04 1963.35 1951.53 1949.9 1943.23 1934.71 1927.55 1922.61 1917.52 1909.59 1895.28 1883.75 1869.1 1856.06 1847.66 1851.58 1841.73 1842.89 1841.27 1850.14 1836.08 1832.99 1830.62 1828.68 1826.86 1824.63 1823.75 1823.53 1822.84 1823.78 1824.24 1824.61 1824.9 1824.96 1824.94 1824.9 1824.41 1823.77 1823.5 1823.62 1823.5 1823.38 1823.68 1823.96 1823.64 1823.5 1822.64 1821.46 1820.09 1818.73 1818.25 1817.91 1818.21 1844.52 1888.43 1870.5 1845.66 1833.12 1832.8 1835.21 1844.12 1846.11 1844.23 1834.68 1827.56 1820.3 1821.15 1822.49 1823.01 1823.14 1823.23 1822.27 1822.08 1827.46 1828.21 1830.08 1831.21 1845.83 1857.96 1870.75 1863.09 1848.68 1850.56 1852.13 1830.16 1829.86 1829.12 1829.03 1837.53 1835.15 1838.33 1835.4 1836.87 1834.34 1845.09 1850.93 1849.67 1851.94 1867.03 1858.98 1842.3 1839.16 1843.65 1864.59 1854.84 1865.91 1868.77 1848.15 1830.28 1826.29 1836.74 1864.27 1876.66 1861.44 1876.02 1868.56 1861.27 1855.16 1854.6 1845.49 1837.98 1851.48 1854.87 1845 1828.34 1830.7 1846.84 1829.02 1836.84 1860.77 1838.06 1821.31 1816.13 1824.26 1840.27 1849.31 1851.48 1850.02 1845.32 1819.07 1803.98 1799.5 1797.81 1794.22 1793.37 1792.52 1791.9 1789.54 1788 1788.1 1788.45 1788.75 1789.12 1789.53 1789.85 1790.17 1790.5 1790.56 1790.76 1791.07 1791.48 1791.97 1792.93 1794.05 1795.97 1799.08 1807.27 1809.51 1815.84 1813.15 1807.04 1812.18 1821.25 1835.4 1843.18 1850.17 1844.05 1836.37 1837.84 1836.3 1821.52 1805.46 1808.72 1812.1 1813.7 1816.27 1818.36 1821.83 1835.76 1830.9 1830.67 1829.75 1830.72 1836.5 1853.2 1863.18 1865.85 1859.2 1852.57 1864.71 1878.84 1875.4 1865.3 1886.11 1887.67 1888.91 1890.57 1891.44 1891.64 1891.6 1891.16 1890.96 1890.82 1890.86 1891.53 1893.72 1895.81 1897.97 1900.59 1902.03 1891.28 1901.71 1896.27 1904.09 1896.21 1878.21 1880.67 1870.95 1862.26 1861.92 1861.99 1870.28 1878.69 1882.66 1874.87 1866.78 1864.37 1875.35 1884.93 1871.21 1868.48 1866.93 1860.7 1854.3 1851.19 1856.98 1865.05 1854.56 1858.39 1866.69 1863.98 1866.27 1869.02 1867.25 1861.05 1861.54 1870.21 1873.1 1886.16 1890.19 1894.91 1901.65 1894.69 1888.71 1892.38 1900.09 1911.74 1916.44 1925.39 1935.94 1939.46 1945.12 1946.23 1933.6 1927.42 1918.99 1913.62 1917.74 1942.46 1938.26 1929.38 1935.3 1945.33 1951.33 1960.7 1970.39 1978.5 1979.31 1979.23 1977.85 1976.7 1975.57 1975.51 1972.77 1964.15 1956.74 1951.95 1951.6 1946.11 1939.94 1929.15 1923.72 1918.81 1919.09 1915.98 1910.27 1902.44 1905.2 1895.39 1890.39 1890.3 1902.88 1904.19 1905.52 1908.27 1910.23 1905.83 1891.89 1899.79 1903.42 1899.99 1885.23 1894.46 1903.56 1912.7 1913.2 1925.86 1937.44 1924.8 1915.06 1913.43 1902.64 1901.68 1899.22 1900.13 1899.15 1889.97 1893.3 1881.74 1874.09 1871.43 1869.25 1868.16 1867.03 1865.37 1859.97 1855.3 1858.23 1861.26 1866.13 1873.69 1888.61 1899.85 1900.94 1898.6 1887.09 1875.29
2262.77 2261.58 2193.25 2130.22 2083.84 2053.07 2031.71 2024.42 2032.47 2019.46 2023.33 2016.7 2001.06 1999.28 1996.43 1988.58 1982.45 1975.88 1973.18 1971.09 1967.31 1972.39 1974.34 1959.43 1956.96 1945.59 1937.81 1927.17 1924.56 1921.47 1918.91 1896.93 1876.98 1872.06 1857.66 1853.1 1846.5 1844.96 1846.39 1841.89 1846.5 1843.06 1834.2 1830.48 1828.74 1827.73 1826.48 1825.3 1824.24 1823.82 1822.43 1823.77 1824.04 1824.11 1824.14 1824.14 1823.88 1823.81 1823.34 1822.91 1822.67 1822.64 1822.92 1823.05 1823.48 1823.21 1822.49 1821.45 1820.04 1818.86 1817.91 1817.71 1818.02 1825.9 1854.2 1891.3 1870.98 1845.33 1836.09 1834.45 1839.49 1849.52 1849.91 1848.24 1847.5 1848.11 1838.43 1826.56 1826.38 1828.98 1829.77 1849.09 1846.42 1852.21 1871.04 1870.09 1863.7 1870.08 1884.51 1895.87 1904.5 1895.64 1890.09 1892.69 1873.02 1852.25 1841.76 1834.62 1839.84 1851.49 1856.19 1856 1845.74 1847 1842.91 1855.2 1885.1 1868.52 1870.61 1894.51 1880.84 1855.82 1849.43 1863.65 1876.61 1879.17 1866.56 1847.89 1836.78 1831.12 1826.96 1835.18 1852 1877.94 1878.78 1886.03 1882.81 1878.04 1868.22 1851.71 1847.45 1858.51 1862.85 1856.46 1838.13 1830.99 1847.27 1840.26 1830.85 1852.73 1859.6 1833 1823.71 1819.73 1835.11 1866.43 1865.66 1860.96 1854.73 1850.18 1833.43 1808.6 1802.95 1799.6 1796.13 1793.45 1792.83 1791.88 1788.72 1787.65 1787.88 1788.09 1788.48 1788.48 1788.78 1789.08 1789.35 1789.49 1789.99 1790.25 1790.49 1790.88 1791.49 1792.35 1793.03 1794.38 1797.57 1801.09 1808.75 1811.85 1805.67 1806.68 1812.8 1820.53 1832.9 1846.12 1846.45 1840.46 1836.91 1829.43 1833.3 1814.5 1805.25 1808.73 1811.84 1813.59 1815.67 1817.69 1824.04 1839.69 1855 1855.55 1854.64 1854.19 1856.23 1851.25 1863.03 1874.81 1880.05 1879.5 1880.18 1882.78 1885.03 1880.4 1885.1 1887.18 1888.98 1890.17 1890.19 1890.13 1889.64 1889.01 1888.69 1888.69 1889.27 1890.61 1892.5 1894.58 1896.67 1898.5 1899.25 1881.07 1883.35 1890.67 1892.17 1875.16 1868.36 1869.51 1875.6 1867.04 1854.34 1858.37 1869.73 1875.78 1875.54 1871.08 1857.9 1865.24 1872.7 1873.07 1865.32 1864.41 1863.02 1855.62 1849.03 1851.19 1859.05 1854.87 1848.72 1855.71 1860.59 1854.83 1856.74 1856.72 1857.7 1871.62 1873.46 1879.5 1887.24 1887.94 1883.8 1884.06 1886.09 1888.87 1884.46 1889.31 1898.17 1903.16 1914.24 1928.46 1945.39 1958.97 1952.63 1924.31 1914.19 1918.18 1918.09 1910.12 1924.35 1937.81 1929.78 1929.42 1943.88 1951.36 1948.53 1958.76 1970.79 1979.53 1987.7 1985.05 1979.57 1970.51 1965.14 1963.11 1961.95 1962.33 1957.38 1949.43 1942.3 1937.86 1931.8 1923.95 1924.13 1922.2 1915.32 1913.99 1914.73 1916.16 1910.53 1908.06 1903.92 1895.65 1888.05 1890.99 1894.98 1896.29 1895.86 1895.11 1891.63 1887.23 1891.93 1888.7 1883.03 1892.96 1906.39 1899.74 1902.85 1923.29 1920.51 1931.49 1918.7 1913.38 1911.38 1917.19 1920.93 1908.08 1891.72 1892.55 1882.83 1884.97 1881.44 1885.39 1878.34 1874.17 1875.51 1868.24 1859.85 1854.28 1854.32 1858.26 1864.18 1868.91 1883.32 1898.89 1896.57 1883.58 1878.58 1864.93
2267.95 2255.56 2176.18 2125.48 2083.75 2055.44 2043.13 2038.25 2042.86 2043.23 2043.38 2032.05 2005.98 1994.4 1993.25 1991.93 1989.44 1984.21 1984.22 1979.99 1974.59 1976.95 1972.4 1967.42 1959.36 1947.48 1935.15 1932.1 1927.7 1927.27 1921.01 1907.31 1884.85 1868.15 1856.64 1853.99 1846.38 1851.68 1853.08 1842.67 1852.35 1855.22 1843.08 1830.79 1829.29 1828.81 1828.24 1826.95 1826 1825.17 1823.63 1822.43 1822.35 1821.96 1821.87 1822.62 1822.72 1822.52 1822.31 1822.16 1822.07 1822.11 1822.16 1822.24 1822.38 1821.96 1821.2 1820.23 1818.97 1818.46 1820.94 1821.41 1829.41 1846.51 1865.77 1887.99 1869.35 1848.33 1837.71 1837.37 1844.9 1855.85 1853.44 1852.89 1854.79 1854.48 1845.83 1845.53 1843.93 1844.67 1835.55 1848.43 1860.73 1871.95 1885.02 1907.67 1919.41 1920 1926.83 1937.83 1936.49 1934.16 1933.13 1922.37 1895.08 1873.78 1855.65 1838.85 1856.87 1865.05 1886.84 1889.09 1870.59 1863.72 1861.75 1861.76 1895.19 1902.17 1899.71 1925.76 1895.16 1869.24 1861.61 1891.54 1921.12 1903.8 1873.12 1851.36 1841.22 1830.53 1827.73 1838.36 1859.52 1885.25 1888.88 1885.44 1878.78 1865.19 1858.94 1862.98 1863.9 1866.84 1861.53 1843.9 1833.9 1843.02 1864.34 1835 1844.75 1867.47 1864.4 1844.11 1828.08 1821.47 1829.18 1846.38 1868.35 1871.45 1865.05 1850.3 1832.74 1817.95 1809.37 1805.18 1797.67 1793.53 1793 1792.19 1790.25 1787.39 1787.41 1787.67 1787.72 1787.72 1788.02 1788.33 1788.57 1788.84 1789.18 1789.6 1790.02 1790.66 1791.2 1791.85 1792.48 1794.07 1798.83 1800.42 1804.51 1804.62 1806.47 1808.99 1813.06 1818.15 1826.77 1835.24 1830.96 1835.94 1836.25 1829.24 1815.82 1804.27 1805.06 1807.85 1810.75 1812.9 1815.79 1821.75 1831.55 1848.15 1857.67 1860.51 1861.73 1862.24 1863.25 1865.84 1869.47 1876.84 1879.82 1880.99 1881.86 1883.18 1884.23 1885.17 1886.86 1887.85 1888.62 1889.21 1888.85 1888.06 1886.24 1885.56 1886.13 1885.62 1887.27 1889.12 1890.93 1892.63 1894.87 1896.89 1898.12 1873.61 1881.63 1879.92 1876.06 1878.1 1868.95 1863.13 1866.57 1867.45 1857.65 1850 1856.44 1860.48 1856.28 1855.81 1861.24 1868.69 1877.6 1869.68 1863.25 1856.83 1861.32 1860.44 1853.51 1847.89 1849.15 1852.72 1846.22 1849.26 1849.52 1854.76 1859.14 1863.23 1873.49 1888.23 1889.52 1882.23 1887.66 1885.26 1873.94 1873.92 1874.47 1877.09 1881.75 1896.99 1903.1 1906.88 1910.48 1914.67 1928.76 1930.11 1938.37 1923.24 1909.36 1909.15 1909.83 1909.36 1916.62 1919.1 1920.26 1920.94 1930.85 1936.77 1954.69 1961.05 1970.58 1982.18 1988.48 1987.49 1986.66 1975.47 1968.16 1959.37 1949.55 1950.59 1953.37 1944.61 1936.76 1930.16 1929.94 1932.93 1929.02 1925.35 1928.08 1923.14 1927.08 1919.84 1910.8 1905.91 1901.88 1894.46 1893.88 1889.06 1881.17 1889.34 1885.03 1882.49 1879.61 1882.36 1885.13 1880.83 1881.98 1892.51 1897.72 1886.56 1903.59 1896.56 1912.54 1917.98 1931.79 1933.71 1943.69 1942.97 1919.64 1904.49 1904.83 1896.55 1887.98 1885.09 1888.03 1885.44 1879.59 1870.62 1865.12 1868.28 1867.59 1857.37 1852.23 1855.23 1857.12 1870.94 1884.34 1878.65 1885.85 1890.34 1866.24 1856.11
2269.04 2208.25 2152.59 2110.64 2085.4 2081.15 2062.73 2050.66 2054.85 2061.84 2067.53 2044.15 2015.33 1998.34 1998.83 1996.05 1990.43 1986.62 1986.35 1981.24 1977.98 1980.11 1972.52 1973.6 1958.01 1946.71 1940.55 1935.74 1930.31 1927.19 1914.86 1888.46 1885.98 1863.17 1872.16 1853.8 1850.45 1856.9 1854.18 1844.35 1859.42 1879.45 1853.48 1840.59 1846.81 1844.13 1832.87 1828.9 1828.96 1830.78 1827.85 1825.57 1824.71 1823.86 1823.15 1821.64 1821.41 1821.32 1821.31 1821.2 1821.3 1821.15 1821.4 1821.33 1820.95 1820.67 1820.03 1819.27 1818.5 1826.56 1833.84 1844.44 1848.71 1892.88 1905.78 1913.74 1880.16 1852.8 1839.13 1845.02 1853.89 1862.46 1858.98 1859.78 1861.77 1861.45 1852.12 1858.27 1855.59 1855.49 1838.36 1848.85 1862.15 1876.47 1887.68 1896.72 1922.98 1939.64 1956.21 1978.74 1982.78 1984.53 1977.29 1962.65 1940.83 1905.05 1880.23 1848.2 1864.38 1888.79 1918.12 1920.68 1881.4 1895.94 1897.37 1883.49 1898.45 1930.13 1933.16 1929.88 1911.28 1877.81 1874.92 1895.83 1922.39 1917.05 1888.57 1856.32 1836.64 1830.84 1831.02 1850.11 1876.31 1891.95 1886.57 1877.89 1871.72 1873.04 1875.38 1872.37 1865.98 1856.97 1844.32 1840.28 1835.73 1853.83 1865.84 1839 1863.66 1870.1 1870.15 1847.35 1832.96 1823.74 1828.49 1864.9 1871.78 1873.24 1870.45 1861.95 1846.42 1825.3 1814.05 1809.48 1802.96 1794.4 1793.2 1792.79 1791.94 1789.51 1787.17 1787.13 1787.23 1787.17 1787.23 1787.57 1787.81 1788.18 1788.5 1788.93 1789.49 1790.18 1790.88 1791.82 1792.77 1795.19 1799.54 1800.31 1800 1802.58 1806.28 1810.6 1815.32 1818.91 1818.59 1824.76 1832.13 1835.99 1833 1826.79 1807.43 1804.1 1805.25 1807.4 1809.92 1812.01 1815.36 1824.6 1847.24 1855.32 1857.38 1859.37 1860.46 1862.01 1864.1 1865.8 1870.07 1877.03 1879.36 1880.92 1882.17 1882.86 1883.8 1884.9 1886.25 1887.22 1887.72 1887.77 1887.08 1886.21 1883.51 1882.2 1882.9 1884.04 1886.11 1887.51 1889.07 1891.03 1893.57 1896.28 1896.36 1871.41 1867.13 1874.57 1867.45 1871.4 1863.79 1858.77 1860.57 1864.73 1858.28 1852.21 1850.02 1850.95 1858.9 1861.54 1868.76 1880.67 1882.67 1866.29 1858.2 1853.52 1853.25 1854.72 1852.92 1844.8 1846.28 1848.53 1856.72 1856.73 1863.28 1868.03 1870.99 1880.75 1879.13 1889.63 1876.07 1870.51 1871.68 1879.14 1870.34 1871.15 1879.35 1884.71 1890.65 1897.5 1888.69 1895.28 1898.11 1904.86 1910.62 1923.91 1911.44 1906.86 1903.84 1903.55 1909.2 1903.04 1905.77 1909.27 1922.91 1938.26 1938.28 1943.07 1946.48 1952.26 1963.84 1967.97 1977.56 1975.45 1976.86 1975.42 1969.87 1964.6 1956.18 1949.02 1940.81 1937.8 1938.37 1938.67 1942.45 1935.47 1935.97 1937.67 1933.37 1933.6 1927.66 1918.19 1912.23 1915.67 1914.09 1905.18 1899.31 1894.18 1886.46 1880.64 1885.22 1887.75 1879.93 1872.52 1873.5 1875.12 1882.73 1888.08 1890.66 1882.1 1900.52 1891.59 1901.52 1907.33 1907.43 1931.77 1942.72 1942.94 1932.51 1922.3 1913.28 1912.8 1900.88 1887.47 1881.44 1877.75 1873.45 1867.22 1876.5 1865.83 1858.98 1861.04 1851.5 1850.64 1859.44 1861.02 1866.8 1862.42 1881.33 1891.29 1884.66 1876.03
2244.28 2174.12 2130.17 2100.13 2103.68 2107.74 2084.42 2060.69 2059.54 2067.29 2070.63 2051.83 2031.76 2018.93 2011.98 2002.75 1997.22 1987.49 1981.06 1975.43 1972.07 1974.5 1969.91 1960.52 1953.64 1946.31 1942.85 1935.49 1921.93 1908.49 1887.87 1871.89 1871.68 1875.26 1879.74 1859.16 1851.29 1859.37 1851.68 1847.61 1870.54 1886.73 1859.54 1858.63 1847.22 1843.45 1838.92 1837.43 1838.99 1843.21 1841.1 1828.41 1826.8 1826.14 1825.48 1824.84 1824.46 1823.17 1821.24 1820.47 1820.52 1820.64 1820.64 1820.52 1820.31 1819.96 1819.42 1818.82 1824 1846.59 1873.53 1881.25 1865.74 1893.4 1910.73 1921.89 1884.38 1851.69 1843.49 1860.92 1862.49 1864.5 1865.81 1866.11 1867.35 1862.63 1861.99 1861.12 1861.76 1855.04 1841.4 1854.52 1866.35 1877.36 1887.74 1903.54 1926.87 1947.52 1966.46 2005.77 2038.05 2041.89 2032.28 2007.19 1963.98 1912.94 1877.72 1855.86 1869.61 1899.55 1933.77 1921.37 1909.6 1931.61 1933.88 1925.26 1929.45 1936.93 1931.92 1926.19 1927.35 1898.18 1894.21 1896.02 1900.75 1909.33 1882.32 1845.16 1833.21 1833.38 1836.46 1846.87 1859.66 1885.97 1886.71 1883.74 1881 1878.2 1868.31 1860.99 1860.09 1858.56 1862.36 1841.23 1840.62 1866.07 1866.69 1845.36 1853.99 1866.84 1871.27 1856.67 1835.25 1826.84 1827.4 1859.33 1874.64 1874.45 1873.17 1857.09 1833.22 1828.21 1818.4 1810.8 1805.2 1797.38 1793.7 1793.29 1792.81 1792.15 1790.01 1788.5 1787.6 1787.08 1786.72 1786.45 1786.9 1787.44 1788.02 1788.32 1788.74 1789.4 1790.64 1791.77 1792.92 1794.89 1797.27 1798.47 1799.49 1802.02 1805.63 1808.33 1812.15 1813.11 1816.89 1830.46 1834.26 1832.6 1830.34 1815.06 1803.4 1803.86 1805.9 1807.48 1809.12 1810.75 1815.89 1833.77 1852.46 1855.72 1857.35 1858.55 1859.5 1861.37 1864.23 1866.47 1872.07 1877.98 1879.67 1880.74 1881.66 1882.85 1883.8 1885.05 1885.87 1886.23 1886.7 1886.78 1885.28 1883.9 1880.52 1878.25 1879.72 1884.78 1884.99 1885.11 1887.57 1890.09 1892.95 1892.88 1890.78 1871.04 1859.36 1865.45 1860.03 1866.83 1864.83 1855.22 1855.16 1857.04 1854.42 1852.59 1845.51 1857.65 1859.04 1869.81 1876.84 1879.32 1873.44 1868.92 1863.79 1857.85 1850.8 1847.23 1846.1 1847.14 1842.69 1851.87 1857.34 1865.2 1870.49 1877.25 1891.55 1900.4 1894.02 1875.94 1869.41 1866.34 1869.07 1873.04 1866.81 1873.01 1889.42 1885.24 1881.03 1882.45 1896.58 1904.16 1909.58 1917.82 1930.04 1916.29 1902.42 1900.55 1897.24 1904.54 1902.24 1902.55 1918.68 1927.28 1934.97 1937.3 1937.59 1942.51 1950.93 1955.68 1964.08 1969.54 1967.5 1965.73 1966.35 1968.1 1974.13 1965.91 1958.26 1948.82 1946.54 1945.82 1946.73 1945.37 1946.12 1941.54 1945.01 1947.28 1934.57 1923.9 1921.1 1920.76 1926.19 1912.85 1909.82 1905.98 1905.24 1899.37 1899.62 1909.07 1905.99 1901.46 1884.31 1886.29 1880.54 1868.86 1876.54 1878.13 1879.65 1882.21 1882.12 1894.09 1890.81 1898.66 1896.53 1904.39 1929.93 1923.84 1933.5 1942.57 1926.18 1922.24 1899.92 1896.73 1889.05 1881.18 1872.29 1881.43 1878.09 1871.39 1869.37 1860.89 1855.76 1847.18 1852.44 1855.12 1855.37 1858.6 1870.27 1865.28 1863.58 1857.85
2209.24 2148.22 2111.7 2100.49 2117.74 2117.35 2100.79 2070.56 2061.91 2072.55 2070.59 2054.65 2037.9 2019.72 2025.9 2010.38 2008.39 2002.59 1981.9 1976.76 1974.83 1964.36 1958.82 1956.7 1950.43 1949.79 1944.61 1932.74 1909.67 1886.7 1878.33 1889.31 1899.47 1894.83 1886.84 1871.58 1852.74 1858.89 1848.83 1854.19 1882.55 1885.27 1858.02 1848.72 1849.45 1849.3 1852.74 1855.92 1847.91 1845.13 1844.14 1834.19 1829.08 1828.14 1827.55 1827.27 1826.79 1825.6 1824.47 1822.62 1821.39 1820.04 1819.96 1819.9 1819.81 1819.35 1819.02 1820.93 1831.51 1871.52 1895.13 1893.67 1883.57 1886.42 1905.74 1920.08 1880.36 1850.39 1846.73 1861.98 1864.08 1865.89 1867.91 1868.38 1868.77 1867.77 1867.65 1864.69 1858.35 1846.72 1858.61 1859.06 1868.27 1891.25 1911.32 1916.7 1936.68 1965.96 1997.81 2031.7 2056.49 2058.02 2052.3 2031.34 1957.39 1913.32 1882.1 1872.99 1882.65 1919.54 1942.39 1930.1 1941.35 1942.89 1942.72 1941.2 1937.82 1935.31 1918.6 1895.15 1909.21 1893.8 1869.57 1874.13 1872.41 1882.35 1869.7 1843.36 1834.04 1836.49 1841.64 1845.47 1856.05 1887.13 1901.31 1894.48 1881.75 1875.85 1875.54 1872.39 1876.19 1873.21 1858.14 1839.05 1852.18 1871.62 1861.09 1869.04 1859.8 1871.37 1866.29 1841.03 1832.77 1828.04 1830.03 1853.33 1876.27 1874.77 1865.49 1844.58 1850.33 1845.55 1820.84 1810.17 1805.19 1802.3 1794.9 1794.23 1793.53 1794.39 1795.08 1793.54 1791.27 1789.68 1788.31 1787.35 1786.44 1786.38 1787.19 1787.71 1788.22 1788.94 1789.91 1791.43 1792.92 1794.45 1795.21 1796.88 1798.87 1800.76 1804.83 1806.76 1809.41 1807.39 1817.26 1828.87 1832.93 1828.45 1815.07 1804.18 1801.79 1803.69 1805.56 1807.07 1808.79 1810.61 1819.75 1846.57 1854.57 1856.06 1857.23 1858.13 1859.52 1861.48 1864.23 1867.93 1873.39 1877.89 1879.47 1879.87 1880.56 1882.26 1883.81 1885.04 1885.2 1885.09 1885.68 1885.57 1883.02 1878.93 1873.95 1878.62 1880.52 1879.99 1882.4 1885.61 1887.79 1890.73 1892.49 1888.71 1877.19 1869.41 1858.68 1854.37 1854.75 1861.57 1861.04 1856.43 1847.77 1852.84 1847.39 1842.43 1846.2 1852.31 1865.65 1870.12 1878.18 1872.79 1870.28 1865.94 1856.09 1855.31 1852.5 1842.82 1839.44 1842.3 1842.23 1853 1864.53 1874.16 1891.93 1899.53 1897.9 1891.78 1887.92 1880.57 1862.66 1860.82 1866.78 1871.68 1862.09 1872.46 1876.66 1874.49 1877.66 1883.53 1887.94 1897.94 1912.85 1923.68 1924.1 1905.1 1898.73 1897.39 1895.3 1894.18 1899.38 1908.22 1917.97 1926.54 1922.1 1929.62 1939.52 1937.27 1943.76 1956.27 1962.01 1969.1 1959.12 1958.8 1958.23 1968.01 1970.55 1964.8 1958.96 1957.75 1955.77 1956.04 1949.01 1949.23 1950.14 1948.04 1942.24 1935.82 1929.79 1934.3 1934.05 1931.59 1922.6 1916.17 1914.38 1919.6 1932.21 1914.03 1913.27 1910.49 1902.4 1894.58 1890.69 1887.55 1886.36 1876.39 1864.91 1866.61 1868.57 1880 1893.78 1891.1 1890.68 1879.76 1887.6 1898.57 1913.31 1924.41 1917.17 1924.35 1933.11 1909.58 1898.44 1890.55 1882.71 1880.58 1889.23 1897.11 1884.35 1886.57 1886.97 1865.72 1853.81 1846.76 1847.28 1849.37 1850.87 1861.73 1861.68 1852.11 1853.69 1862.22
2186.22 2143.72 2116.54 2115.92 2120.78 2128.74 2093.8 2063.8 2072.29 2080.46 2068.79 2055.06 2045.11 2025.9 2013.69 2023.34 2014.15 2008.88 1996.91 1987.6 1984.41 1972.96 1951.01 1949.19 1947.15 1952.73 1947.37 1915.64 1897.11 1886.73 1897.66 1916.81 1910.8 1907.45 1894.01 1869.87 1858.14 1857.73 1851.64 1858.37 1887.21 1875.47 1854.54 1848.9 1866.39 1864.04 1869.3 1864.1 1854.39 1848.36 1845.1 1838.16 1831.69 1831.47 1829.76 1830.05 1829.21 1828.08 1828.03 1828.6 1824.66 1822.8 1821.88 1820.3 1820.11 1821.22 1823.79 1827.19 1834.37 1866.53 1889.77 1893.68 1886.43 1882.46 1899.04 1911.76 1879.84 1855.56 1847.36 1852.14 1863.05 1866.58 1868.8 1869.9 1869.87 1868.93 1866.35 1860.45 1857.89 1852.53 1871.29 1870.82 1872.91 1893.65 1925.03 1934.66 1943.81 1972 2002.31 2045.57 2059.24 2059.95 2054.84 2028.19 1959.21 1913.67 1887.32 1889.95 1903.86 1933.66 1944.7 1946.44 1946.82 1944.96 1940.65 1931.82 1931.88 1916.37 1894.88 1873.34 1886.33 1895.24 1868.15 1858.16 1853.66 1853.27 1848.95 1839.68 1835.73 1838.79 1858.19 1856.77 1874.1 1884.09 1908.97 1904.58 1897.7 1896.16 1890.74 1886.64 1888.47 1872.12 1846.3 1842.58 1853.18 1877.05 1873.21 1873.17 1872.9 1880.87 1871.23 1844.31 1831.4 1829.05 1852.31 1875.66 1877.93 1874.44 1871.12 1873.1 1867.42 1850.72 1827.36 1812.99 1810.27 1806.28 1801.25 1798.79 1798.66 1797.82 1798.89 1798.71 1796.18 1793.32 1790.75 1789.32 1788.44 1787.4 1785.96 1786.39 1787.73 1788.45 1789.38 1790.6 1792.14 1793.09 1793.72 1795.04 1797.13 1799.06 1803.02 1806.27 1805.29 1806.3 1813.41 1826.67 1828.65 1824.47 1805.51 1800.11 1801.05 1803.13 1804.62 1805.96 1808.88 1811.7 1829.75 1849.12 1854.86 1855.96 1856.24 1857.05 1859.01 1860.7 1864.95 1870.75 1874.36 1877.79 1878.31 1878.58 1879.58 1881.28 1883.38 1884.63 1884.15 1884.02 1884.35 1883.5 1879.94 1875.38 1869.34 1877.24 1876.21 1879.67 1883.05 1884.61 1887.98 1890.86 1891.64 1891.63 1886.54 1879.14 1864.87 1852.89 1847.69 1851.77 1857.35 1850.74 1842.75 1842.97 1839.8 1844.34 1860.92 1860.28 1861.68 1867.11 1880.43 1868.48 1856.43 1857.44 1853.65 1853.41 1847.31 1843.85 1841.12 1838.35 1843.26 1852.81 1858.86 1861.87 1877.58 1885.24 1888.54 1869.46 1868.94 1867.01 1858.93 1858.54 1865.42 1875.03 1862.43 1863.38 1867.03 1876.16 1889.83 1893.32 1904.36 1908.4 1919.32 1928.26 1916.75 1904.19 1898.33 1891.08 1888.7 1896.7 1903.49 1910.94 1916.27 1919.09 1927.26 1932.2 1945.41 1955.46 1948.29 1952.72 1961.26 1964.96 1959.09 1951.74 1952.85 1957.06 1959.83 1958.71 1967.79 1967.18 1967.52 1964.35 1957.49 1956.6 1955.71 1947.8 1941.53 1940.22 1936.87 1938.36 1932.38 1926.93 1922.45 1925.09 1929.96 1940.33 1940.79 1914.46 1901.51 1898 1895.41 1886.44 1880.05 1875.73 1875.27 1869.5 1866.75 1863.3 1860.09 1875.73 1880.61 1879.45 1890.56 1875.38 1880.58 1883.36 1903.5 1928.87 1917.87 1906.52 1927.27 1924.68 1899.5 1890.28 1886.97 1891.63 1909.3 1891.53 1879.84 1883.84 1867.6 1858.34 1853.88 1859.61 1846.61 1841.57 1844.46 1849.66 1849.1 1846.24 1851.66 1861.71
2174.56 2141.87 2130.85 2136.76 2136.04 2113.23 2097.12 2101.25 2091.44 2086.72 2075.26 2054.7 2047.47 2032.52 2016.24 2013.1 2013.38 2006.72 1994.77 1991.23 1981.14 1977.26 1958.96 1948.46 1931.09 1933.29 1920.72 1911.07 1897.54 1899.71 1928.66 1903.62 1887.26 1889.02 1876.31 1858.73 1865.06 1858.54 1857.09 1871.6 1889.76 1866.48 1854.72 1855.72 1884.7 1887.47 1878.37 1866.57 1855.18 1850.28 1847.26 1838.46 1836.92 1846.27 1843.68 1845.09 1845.09 1832.2 1836.34 1838.76 1837.16 1834.74 1834.34 1837.26 1839.67 1837.85 1830.67 1839.94 1842.41 1851.14 1866.71 1876.55 1885.1 1883.96 1891.91 1901.09 1884.31 1861.25 1852.2 1850.36 1857.56 1867.13 1869.76 1871.03 1870.86 1866.82 1865.03 1864.55 1865.72 1855.41 1864.81 1877.93 1891.58 1911.73 1928.32 1939.59 1951.5 1981.81 2017.52 2051.22 2062.19 2062.36 2054.33 2021.41 1954.75 1917.1 1898.75 1920.73 1941.89 1948.91 1948.43 1949.33 1947.95 1935.98 1928.54 1907.69 1900.69 1883.61 1872.02 1859.62 1865.42 1862.48 1852.6 1847.91 1843.31 1841.57 1839.02 1837.16 1835.59 1840.72 1880.68 1876.9 1883.31 1914.36 1924.82 1918.36 1916.17 1912.31 1908.23 1906.84 1889.37 1864.58 1844.71 1846.34 1859.23 1884.98 1883.82 1878.89 1877.6 1887.57 1872.1 1840.91 1830.97 1834.59 1859.45 1880.45 1879.26 1878.57 1878.15 1876.18 1862.95 1841.54 1828.88 1819.62 1812.89 1807.81 1804.67 1802.51 1801.57 1801.21 1799.31 1800.25 1799.46 1797.09 1794.07 1790.8 1789.78 1788.52 1786.99 1785.83 1785.58 1787.7 1788.57 1789.6 1790.64 1791.72 1792.66 1793.73 1795.05 1795.88 1798.01 1801.62 1801.89 1800.21 1802.76 1812.93 1819.08 1802.28 1798.37 1799.01 1800.33 1802.22 1803.79 1805.6 1809.65 1816.21 1841.17 1853.56 1854.98 1855.05 1854.06 1855.91 1858.78 1861.62 1867.15 1873.5 1875 1876.49 1876.76 1877.45 1878.43 1879.96 1881.58 1883.16 1882.98 1882.91 1882.24 1880.73 1878.15 1869.76 1865.91 1875.72 1880.2 1884.27 1886.12 1886.54 1887.9 1885.64 1888.36 1886.95 1885.71 1883.5 1862.97 1854.51 1844.71 1845.91 1854.31 1854.04 1847.17 1836.53 1848.31 1851.41 1853.12 1856.88 1865.75 1871.73 1863.93 1866.81 1860.28 1851.65 1848.03 1852.99 1852.55 1842.9 1835.85 1836.59 1846.49 1851.2 1855.15 1862.38 1871.34 1869.13 1893.88 1869.46 1859.95 1862.54 1854.16 1856.27 1862.82 1863.64 1860.83 1859.36 1876.01 1884.51 1878.52 1885.82 1894.23 1905.73 1906.66 1900.96 1899.03 1898.64 1894.19 1886.2 1896.48 1898.39 1906.05 1914.46 1922.08 1935.55 1939.17 1951.43 1951.74 1960.36 1961.38 1962.09 1970.87 1962.84 1955.82 1952.12 1944.49 1947.62 1951.71 1951.54 1957.21 1952.19 1954.96 1952.18 1968.63 1973.79 1963.12 1951.24 1951.95 1942.96 1950.29 1946.4 1942.97 1936.6 1937.89 1943.26 1947.97 1944.22 1944.85 1908.4 1897.1 1890.26 1885.84 1883.2 1882.1 1889.2 1880.85 1883.01 1886.45 1881.25 1868.83 1867.95 1869.62 1877.93 1878.71 1873.89 1883.53 1892.77 1909.83 1928.07 1908.07 1899.47 1921.59 1928.8 1902.91 1910.32 1906.7 1901.67 1912.87 1892.37 1873.95 1866.72 1865.35 1865.84 1872.05 1860.43 1851.44 1846.45 1841.92 1840.01 1842.08 1843.03 1847.41 1850.47
2174.31 2142.63 2145.54 2152.67 2155.13 2120.51 2125.08 2129.61 2123.39 2100.72 2076.55 2056.64 2048.22 2040.85 2023.51 2018.21 2009.13 2000.36 1989.87 1986.39 1973.74 1978.86 1962.19 1951.17 1925.86 1910.34 1903.74 1902.18 1896.29 1888.04 1887.42 1885.92 1871.29 1865.99 1859.63 1870.12 1869.3 1859.97 1859.59 1878.86 1888.77 1864.53 1856.28 1869.63 1896.43 1886.07 1874.81 1861.82 1853.47 1848.71 1841.51 1838.38 1849.95 1854.1 1853.69 1849.49 1847.11 1835.73 1846.07 1844.76 1842.45 1843.8 1842.75 1845.42 1851.97 1845.43 1847.86 1844.11 1850.34 1851.52 1856.92 1868.22 1889.15 1885.67 1887.44 1890.61 1882.09 1865.11 1866.03 1853.41 1858.03 1867.61 1871.6 1872.83 1871.99 1868.84 1871.61 1871.22 1865.04 1863.1 1874.67 1892.56 1912.19 1935.49 1942 1960.29 1982.96 2008.93 2031.05 2056.33 2064.77 2064.06 2051.73 2009.45 1980.73 1938.03 1915.03 1940.69 1954.86 1951.75 1951.58 1945.69 1940.45 1913.64 1894.83 1892.82 1871.49 1864.09 1860.45 1855.6 1855.43 1856.89 1856.09 1852.35 1858.14 1840.47 1838.55 1837.67 1839.55 1850.78 1869.48 1902.98 1919.34 1927.51 1927.21 1924.3 1922.59 1919.21 1910.73 1893.21 1863.28 1848.21 1849.82 1852.2 1869.88 1900.5 1895.4 1886.08 1881.29 1887.69 1864.75 1834.25 1833.51 1840.6 1864.17 1880.86 1881.31 1881.2 1878.37 1874.37 1867.19 1850.12 1831.67 1820.28 1815.56 1810.96 1811.65 1807.14 1803.55 1805.02 1801.22 1800.01 1799.58 1798.92 1794.94 1793.24 1791.18 1789.56 1787.75 1786.76 1785.58 1786.54 1787.8 1788.63 1789.27 1790.34 1791.65 1792.91 1792.73 1792.85 1792.67 1793.3 1794.07 1795.28 1797.39 1797.98 1798.25 1798.02 1798.81 1799.91 1800.57 1802 1803.8 1806.28 1810.72 1823.57 1847.05 1853.18 1853.27 1851.38 1851.55 1855.41 1858.64 1862.39 1869.09 1873.55 1874.81 1875.48 1875.03 1875.68 1877.06 1878.59 1879.93 1882.16 1882.03 1881.3 1880.52 1879.14 1872.72 1864.78 1872.16 1880.69 1882.93 1884.72 1885.93 1886.22 1886.55 1878.91 1889.95 1880.87 1880.93 1883.21 1861.53 1857.81 1849.65 1840.08 1842.78 1846.38 1843.34 1836.5 1847.28 1853.72 1855.45 1865.99 1861.94 1862.49 1855.2 1857.1 1864.38 1853.86 1846.27 1845.66 1851.46 1843.58 1834.76 1837.46 1841.69 1846.63 1853.94 1854.19 1856.47 1867.07 1884.71 1872.82 1857.66 1853.73 1850.64 1850.14 1852.12 1854.77 1856.74 1863.06 1865.44 1868.99 1873.97 1884.68 1886.6 1889.17 1887.57 1883.29 1894.35 1891.93 1888.68 1883.11 1888.37 1895.95 1907.48 1906.94 1913.8 1917.95 1933.44 1943.37 1955.01 1969.05 1979.82 1981.25 1976.49 1966.47 1961.23 1955.54 1948.66 1938.29 1938.62 1942.97 1947.39 1942.18 1943.51 1953.83 1965.71 1974.43 1975.4 1966.01 1962.09 1960.45 1967.62 1966.22 1958.08 1954.45 1949.12 1941.95 1937.77 1934.4 1925.92 1900.2 1895.66 1897.68 1889.91 1893.95 1892.89 1895.21 1883.58 1891.74 1882 1876.98 1870.59 1859.54 1864.68 1869.75 1866.85 1880.1 1893.36 1895.36 1917.89 1923.92 1910.65 1899.84 1923.03 1935.08 1929.92 1934.82 1927.17 1907.57 1904.27 1903.66 1896.02 1881.84 1893.17 1891.39 1889.34 1863.94 1858.53 1848.78 1844.38 1840.07 1837.79 1838.46 1840.64 1841.04
2170.84 2166.03 2160.18 2147.34 2149.67 2123.3 2131.91 2130.87 2129.89 2118.82 2083.88 2063.97 2046.77 2044.29 2032.41 2020.25 2007.53 1996.25 1985.42 1977.24 1971.86 1969.95 1963.64 1941.27 1924.49 1926.14 1912.6 1910.37 1904.63 1890.62 1879.49 1876.92 1871.95 1864.13 1883.8 1879.43 1871.73 1861.97 1865.52 1881.92 1890.04 1868.79 1861.41 1879.85 1896.27 1885.37 1873.34 1861.73 1853.35 1847.83 1840.66 1849.74 1857.56 1868.62 1866.77 1855.34 1841.73 1840.79 1851.85 1850.1 1845.8 1851.67 1848.86 1850.45 1858.58 1848.14 1858.55 1855.67 1856.41 1859.77 1860.45 1879.01 1901.66 1889.85 1890.97 1886.79 1877.67 1872.69 1868.96 1856.83 1859.48 1870.47 1875.24 1876.84 1876.04 1876.33 1877.42 1873.42 1871.95 1884.37 1902.53 1921.91 1947.58 1975.81 1972.8 1989.07 2012.63 2031.27 2048.17 2065.47 2067.26 2065.14 2054.83 2023.64 1984.29 1937.49 1948.59 1958.09 1955.76 1949.93 1938.64 1921.64 1904.74 1912.25 1878.49 1866.54 1863.82 1864.23 1860.58 1873.86 1868.9 1880.24 1888.87 1860.89 1842.29 1840.26 1842.49 1844.83 1852.45 1857.44 1874.34 1908.43 1931.23 1928.44 1924.36 1919.75 1910.37 1911.59 1893.42 1870.92 1854.69 1851.4 1856.85 1860.11 1882 1911.22 1907.94 1894.14 1885.81 1888.59 1859.14 1836.09 1835.81 1854.49 1877.58 1881.26 1883.22 1882.98 1877.17 1870.79 1857.85 1848.61 1836.23 1826.26 1823.75 1821.25 1814.61 1809.53 1804.75 1803.5 1801.98 1800.4 1798.58 1796.24 1794.1 1793.29 1792.13 1790.08 1788.6 1787.39 1786.31 1785.09 1787.03 1787.47 1788.11 1789 1789.67 1790.75 1791.12 1791.32 1791.53 1791.79 1792.32 1793.33 1794.81 1796.19 1797.02 1798.36 1799.56 1799.39 1799.76 1801.92 1804.13 1807.25 1814.03 1832.2 1848.54 1851.52 1849.81 1847.13 1850.43 1853.95 1857.95 1862.7 1869.83 1873.61 1875.1 1874.53 1872.71 1873.42 1873.77 1878.09 1879.9 1881.49 1881.03 1879.62 1878.98 1873.24 1863.03 1860.45 1879.57 1881.92 1882.68 1882.17 1880.78 1878.82 1883.82 1874.16 1877.76 1872.36 1882.85 1877.59 1860.61 1851.44 1852.97 1842.95 1836.37 1842.36 1833.37 1844.02 1854.11 1859.99 1865.81 1868.41 1852.61 1853.75 1850.04 1861.37 1859.11 1848.21 1841.96 1842.14 1833.87 1833.55 1833.39 1836.5 1848.4 1844.4 1848.75 1850.48 1855.65 1873.74 1880.58 1858.72 1860.62 1850.65 1847.35 1856.96 1866.55 1871.89 1873.6 1874.74 1872.51 1872.64 1875.52 1876.66 1879.5 1877.22 1882.15 1891.22 1885.78 1882.77 1881.03 1882.96 1897.64 1909.5 1919.36 1925.1 1922.22 1935.22 1938.28 1950.08 1961.28 1964.73 1965.28 1979.99 1974.1 1967.19 1964.22 1959.1 1950.98 1946.86 1939.68 1933.07 1939.43 1936.86 1945.34 1946.35 1958.95 1965.01 1979.36 1982.87 1981.25 1978.78 1961.44 1956.64 1955.53 1946.88 1941.24 1937.2 1933.94 1931.34 1904.65 1908.97 1905.88 1896.16 1900.78 1904.63 1899.24 1889.13 1896.25 1893.76 1886.98 1882.78 1874.19 1872.25 1859.34 1863.96 1873.63 1874.31 1878.28 1885.72 1907.6 1901.94 1897.29 1896.46 1915.46 1930.71 1934.48 1929.93 1919.7 1896.97 1890.38 1896.84 1908.84 1901.38 1899.45 1896.66 1881.34 1874.75 1856.93 1856.53 1852.59 1842.82 1836.72 1835.64 1836.28 1837.01
2165.35 2183.32 2182.23 2151.7 2127.11 2117.37 2135.63 2133.97 2127.8 2122.77 2100.65 2081.33 2051.17 2032.18 2016.59 2006.62 1999.18 1997.43 1988.67 1985.53 1973.85 1956.53 1949.78 1947.13 1947.19 1942.56 1923.95 1924.54 1910.62 1891.17 1894.84 1886.52 1875.72 1867.61 1893.8 1883.48 1869.23 1869.47 1876.35 1885.79 1886.89 1872.39 1873.26 1888.3 1891.24 1884.91 1869.24 1860 1854.81 1846.39 1853.36 1856.92 1869.81 1886.08 1886.37 1863.13 1850.42 1843.78 1855.46 1852.6 1854.42 1859.72 1861.83 1867.58 1860.99 1867.13 1856.99 1873.26 1863.05 1866.66 1879.28 1893.89 1905.12 1895.36 1894.55 1889.66 1878.37 1872.91 1863.1 1858.41 1867.16 1877.72 1880.34 1881.41 1881.4 1883.21 1882.29 1878.96 1890.39 1915.69 1936.55 1963.1 1984.19 1999.12 2006.68 2025.52 2047 2062.41 2068.1 2069.7 2069.63 2066.41 2053.4 2022.83 1988.25 1965.36 1963 1959.77 1949.79 1928.75 1912.77 1903.92 1879.49 1874.41 1867.87 1879.48 1891.11 1883.17 1865.46 1890.78 1906.27 1907.43 1905.19 1861.21 1841.25 1842.18 1846.37 1850.18 1857.53 1866.8 1888.85 1921.32 1930.44 1921.45 1916.55 1905.6 1890.65 1887.45 1877.84 1857.66 1851.65 1854.1 1867.25 1871.66 1898.03 1913.17 1911.29 1896.83 1880.72 1880.09 1854.8 1839.65 1836.11 1853.93 1879.87 1882.11 1883.75 1883.09 1878.57 1873.67 1869.79 1851.58 1840.22 1829.46 1828.1 1821.4 1811.49 1808 1812.51 1807.86 1804.72 1801.5 1799.46 1797.48 1795.07 1794.34 1793.7 1790.8 1789.14 1788.12 1787.5 1785.12 1785.5 1786.26 1787.04 1787.52 1787.65 1788.64 1789.67 1790.09 1790.59 1791.15 1791.88 1792.82 1793.97 1795.08 1796.27 1798.09 1798.47 1798.48 1799.5 1802.14 1804.73 1810.19 1822.98 1840.45 1849.74 1850.35 1848.79 1843.68 1849.45 1853.66 1858.86 1864.08 1870.24 1873.3 1873.87 1868.21 1869.84 1864.79 1873.01 1878.78 1880.38 1881.01 1879.86 1877.5 1873.41 1865.6 1856.82 1874.31 1880.53 1881.33 1879.88 1872.77 1865.84 1879.18 1880.01 1870.62 1868.26 1868.57 1869.49 1871.5 1867.95 1851.83 1843.18 1844.61 1833.73 1831.52 1834.26 1841.45 1849.26 1854.64 1870.62 1864.78 1847.34 1853.34 1848.22 1855.73 1856.05 1849.59 1841.27 1836.17 1831.73 1835.77 1844.53 1851.09 1854.52 1852.89 1856.86 1858.65 1865.77 1879.84 1881.47 1867.57 1854.49 1847.81 1846.59 1854.49 1859.82 1863.83 1862.11 1861.02 1861.4 1867.31 1876.66 1879.19 1882.12 1889.25 1897 1884.18 1879.82 1877.66 1882.22 1892.24 1901.69 1904.69 1921.82 1925.29 1937.26 1945.98 1950.25 1943.77 1947.12 1950.12 1960.76 1974.5 1966.26 1963.49 1958.9 1957.18 1948.19 1947.38 1939.04 1931.45 1931.43 1934.07 1937.12 1947.07 1958.84 1971.9 1964.75 1968.6 1966.93 1963.1 1954.98 1949.91 1945.46 1943.06 1941.12 1942.12 1932.49 1919.4 1913.26 1911.42 1903.03 1906.59 1913.75 1907.51 1898.05 1898.13 1911.57 1896.84 1883.91 1889.43 1878.58 1870.89 1860.92 1862.26 1869.49 1880.28 1898.17 1908.09 1913.65 1906.94 1896.07 1892.05 1911.21 1930.47 1924.5 1927.84 1908.99 1904.38 1885.57 1879.51 1898.49 1907.93 1897.86 1885.44 1880.34 1873.04 1868.35 1865.58 1851.98 1843.83 1842.71 1837.91 1835.12 1834.37
2166.9 2186.55 2186.94 2159.14 2128.23 2134.24 2156 2144.7 2129.28 2130.4 2110.97 2088.11 2073.52 2059.31 2039.46 2019.33 2004.48 1997.14 1994.55 1989.89 1989.28 1981.8 1971.61 1962.82 1950.96 1925.9 1907.98 1901.43 1899.03 1903.43 1901.75 1887.72 1878.12 1868.31 1894.86 1883.28 1871.75 1881.25 1885.59 1887.62 1888.47 1882.44 1895.07 1898.51 1890.29 1883.63 1875.69 1861.12 1850.68 1846.55 1861.54 1870.7 1884.27 1909.27 1896.16 1873.02 1847.58 1851.78 1863.18 1860.65 1860.77 1870.03 1883.59 1890.7 1880.7 1892.39 1880.16 1878.8 1873.86 1874.7 1890.56 1908.81 1910.71 1902.44 1899.14 1891.31 1881.37 1876.96 1866.64 1862.44 1877.19 1882.23 1884.7 1886.23 1886.92 1888.66 1887.7 1896.08 1910.54 1940.74 1957.99 1971.18 1982.84 2005.7 2025.34 2046.95 2069.29 2070.24 2070.77 2071.19 2070.91 2063.85 2039.82 2010.1 1984.8 1964.15 1957.63 1949.14 1931.97 1913.85 1899.3 1886.06 1879.45 1874.36 1879.62 1907.94 1917.46 1885.92 1867.12 1886.5 1917.84 1923.08 1914.34 1880.15 1847.61 1842.05 1849.11 1854.95 1862.83 1876.14 1900.57 1926.69 1924.69 1902.95 1899.62 1894.78 1876.91 1865.81 1862.33 1857.11 1864.76 1869.75 1869.61 1888.29 1908.17 1916.86 1913.53 1903.96 1873.18 1860.64 1849.68 1841.7 1837.3 1851.21 1882.09 1884.22 1884.02 1882.42 1879.76 1876.74 1862.08 1845.34 1840.38 1834.92 1824.26 1816.07 1812.78 1812.71 1823.34 1817.37 1807.23 1803.16 1799.28 1797.53 1795.64 1794.36 1793.97 1792.28 1789.79 1788.35 1787.75 1786.79 1784.6 1785.25 1785.91 1786.33 1786.94 1787.92 1788.8 1789.35 1790.2 1790.94 1791.83 1792.57 1793.37 1794.62 1795.86 1797.06 1797.7 1798.67 1800.14 1802.85 1806.81 1819.48 1835.19 1844.35 1847.61 1848.15 1845.62 1841.24 1849.27 1855.45 1860.98 1867.88 1870.86 1871.63 1870.43 1863.68 1854.13 1856.49 1874.14 1880.04 1880.82 1881.11 1878.62 1868.59 1863.16 1854.37 1864.84 1876.32 1879.11 1880.29 1878.57 1872.25 1858.78 1878.05 1864.93 1862.1 1862 1862.52 1869.39 1877.34 1873.12 1851.71 1835.93 1839.21 1829.92 1834.05 1843.26 1851.64 1852.29 1865.3 1879.55 1868.09 1847.83 1841.56 1844.81 1855.52 1847.47 1849.83 1850.64 1840.17 1832.33 1831.74 1838.56 1845.46 1854.84 1855.37 1857.33 1874.46 1872.42 1883.74 1881.52 1858.94 1858.69 1849.23 1844.53 1850.95 1851.93 1853.2 1855.29 1862.86 1867.27 1867.07 1867.41 1868.57 1878.58 1888.9 1882.39 1878.73 1875.42 1879.16 1883.32 1887.72 1895.27 1905.35 1912.53 1927.86 1938.57 1935.52 1932.69 1940.9 1951.7 1963.02 1972.19 1965.8 1960.96 1960.79 1957.23 1948.11 1942.28 1938.99 1935.3 1930.44 1922.09 1921.14 1930.5 1940.61 1951.02 1961.84 1949.92 1956.09 1965.27 1960.35 1958.53 1955.04 1952.75 1952.22 1952.81 1947.63 1933.24 1926.38 1917.81 1911.28 1907.17 1917.89 1929.14 1914.26 1904.99 1910.78 1906.86 1898.87 1901.41 1909.19 1884.64 1869.31 1864.32 1854.77 1864.74 1878.68 1898.34 1900.57 1916.83 1914.07 1902.45 1884.26 1902.37 1916.76 1902.62 1923.98 1904.28 1896.5 1895.01 1871.55 1890.08 1905.46 1903.33 1897.94 1894.19 1893.15 1889.22 1864.83 1855.05 1854.34 1852.46 1841.79 1835.54 1832.96
2174.96 2169.61 2180.15 2161.89 2142.48 2153.1 2155.74 2127.43 2107.92 2103.33 2104.9 2087.93 2078.16 2055.88 2037.17 2022.34 2011.01 2007.17 2002.51 1996.46 1989.05 1974.9 1967.68 1957.4 1939.43 1926.99 1914.06 1903.96 1894.8 1891.37 1886.78 1884.42 1873.49 1872.99 1893.39 1888.14 1877.61 1879.37 1899.33 1903.82 1896.73 1896.4 1913.77 1910.03 1894.08 1885.07 1875.68 1857.89 1851.64 1859.32 1868.26 1893.16 1912.31 1899.41 1875.26 1854.64 1853.73 1855.16 1871.73 1867.44 1868.81 1879.85 1908.14 1922.18 1905.59 1921.49 1906.34 1889.36 1881.5 1882.64 1888.36 1908.52 1912.79 1907.03 1901.48 1896.27 1883.95 1879.36 1866.5 1871.01 1880.76 1885.96 1892.46 1898.84 1899.87 1899.43 1906.85 1914.37 1935.34 1958.16 1971.7 1984.06 1996.51 2011.14 2035.98 2066.21 2070.71 2071.55 2071.42 2070.83 2067.19 2046.29 2018.73 1995.11 1973.43 1955.29 1938.25 1929.19 1915.67 1901.01 1886.53 1881.55 1882.3 1884.09 1889.16 1903.48 1897.89 1881.95 1873.24 1894.41 1921.66 1914.59 1899.11 1875.2 1850.26 1845.03 1849.79 1858.65 1871.15 1891.79 1924.81 1929.93 1900.37 1891.06 1892.28 1904.52 1878.22 1862.04 1858.76 1863.26 1869.61 1881.04 1887.83 1905.25 1915.19 1919.4 1915.22 1903.03 1899.2 1883.52 1854.9 1842.06 1841.5 1852.76 1882.82 1887 1884.63 1882.48 1879.53 1871.54 1860.22 1845.96 1829.98 1825.53 1821.08 1823.53 1826.99 1813.1 1819.93 1824.39 1811.73 1805.13 1799.71 1797.58 1794.98 1793.57 1792.93 1792.36 1790.12 1787.58 1787.02 1786.87 1785.16 1784.33 1784.76 1785.29 1786.19 1787.14 1788.08 1788.74 1789.68 1791.41 1792.8 1793.52 1793.97 1794.72 1795.54 1796.6 1797.7 1798.84 1800.33 1803.53 1809.84 1823.17 1835.95 1841.34 1843.32 1843.22 1843.01 1836.81 1843.3 1852.71 1862.23 1868.53 1869.88 1869.03 1867.73 1853.13 1845.56 1850.84 1871.98 1880.34 1881.05 1879.75 1867.6 1858.84 1851.32 1853.06 1872.73 1876.13 1877.38 1878.72 1876.51 1868.49 1852.65 1865.44 1858.98 1855.42 1861.82 1875.22 1882.07 1875.24 1863.26 1849.27 1837.1 1832.49 1828.71 1839.2 1848.72 1859.71 1873.48 1877.52 1878.06 1867.79 1845.16 1835.22 1836.65 1851.41 1834.55 1843.42 1834.5 1829.43 1831.14 1835.22 1836.59 1839.53 1842.17 1849.35 1855.82 1868.07 1862.97 1880.03 1870.5 1855.73 1849.55 1846.14 1840.39 1848.32 1851.19 1856.9 1866.61 1865.41 1864.3 1860.96 1863.24 1863.3 1868.41 1872.45 1872.34 1872.5 1873.67 1880.5 1888.12 1897.26 1904.11 1916.19 1924.83 1928.65 1925.64 1925.7 1936.12 1942.55 1950.06 1960.39 1962.15 1958.56 1954.09 1949.7 1956.79 1957.28 1952.29 1948.74 1943.84 1939.6 1931.79 1918.27 1930.25 1940.53 1939.71 1941.97 1952.73 1963.15 1969.61 1960.7 1953.4 1963.14 1962.36 1962.92 1963.15 1955.55 1936.72 1938.24 1922.69 1918.01 1914.68 1926.32 1939.76 1921.91 1918.87 1914.93 1921.51 1912.05 1892.28 1886.25 1878.91 1865.16 1857.82 1855.15 1866.11 1870.58 1878.48 1886.65 1914.06 1903.34 1895.17 1890.26 1883.69 1886.39 1893.96 1907.05 1894.14 1881.97 1882.63 1868.97 1882.59 1900.58 1903.93 1892.73 1886 1886.66 1880 1878.23 1868.07 1855.61 1849.91 1842.1 1836.44 1832.96
2186.12 2167.46 2168.97 2156.57 2147.01 2149.31 2135.19 2119.73 2088.89 2079.36 2080.83 2072.45 2058.68 2045.13 2040.92 2027.53 2013.96 2001.73 1995.68 1985.76 1979.42 1971.89 1965.21 1949.77 1926.77 1908.93 1903.22 1897.93 1896.47 1892.01 1892.86 1883.4 1872.62 1877.83 1898.66 1891.9 1884.08 1883.66 1895.69 1911.61 1910.7 1909.88 1909.19 1903.31 1892.29 1882.74 1871.32 1856.31 1858.62 1865.09 1872.93 1905.81 1902.5 1874.4 1857.21 1869.69 1870.55 1862.39 1878.3 1872.8 1870.04 1886.21 1905.29 1929.34 1929.93 1934.59 1915.23 1889.69 1890.69 1890.37 1893.02 1909.04 1914.98 1910.81 1901.8 1891.8 1883.41 1877.5 1866.24 1871.97 1879.69 1886.85 1896.29 1913.6 1926.01 1916.06 1926.77 1934.93 1964.14 1983.17 2001.66 2008.3 2019.02 2037.8 2060.35 2069.88 2071.55 2071.77 2071.24 2069.22 2051.5 2027.25 1998.2 1976.29 1958.88 1945.71 1930.32 1912.9 1901.03 1891.94 1885.9 1892.54 1888.38 1884.51 1890.38 1893.02 1881.12 1878.25 1881.69 1906.69 1922.08 1903.45 1890.55 1861.56 1849.89 1847.04 1850.04 1869.13 1884.35 1896.78 1933.27 1921.97 1892.45 1882.76 1880.47 1881.79 1878.08 1862.27 1866.94 1874.95 1885.74 1881.45 1895.47 1914.4 1919.93 1922.18 1916.39 1911.48 1903.02 1882.7 1863.35 1842.22 1845.43 1861.98 1882.98 1888.11 1884.3 1879.77 1874.98 1853.79 1836.38 1828.12 1829.2 1825.82 1835.07 1836.95 1822.58 1818.41 1835.52 1834.91 1820.32 1810.22 1802.04 1797.18 1793.37 1793.29 1792.02 1791.13 1789.6 1787.52 1786.71 1786.88 1786.06 1784.78 1784.03 1784.49 1785.43 1786.38 1787.32 1788.18 1789.29 1791.08 1792.62 1793.53 1794.2 1794.69 1795.18 1796.14 1797.21 1798.42 1800.13 1804.16 1815.31 1827.08 1831.58 1834.77 1837.62 1838.53 1838.99 1836.44 1844.23 1865.14 1868.83 1869.92 1864.78 1866.8 1861.37 1845.54 1842 1850.41 1863.79 1880.5 1880.59 1880.4 1867.04 1854.31 1846.98 1863.53 1874.77 1872.61 1874.99 1874.39 1868.24 1867.33 1849.94 1852.92 1850.81 1859.51 1872.21 1878.73 1861.47 1860.8 1850.84 1848.24 1835.38 1827.08 1829.22 1844.5 1849.85 1859.61 1863.4 1868.45 1873.6 1866.77 1851.93 1844.27 1833.07 1843.31 1835.32 1831.03 1832.75 1828.64 1835.22 1839.12 1850.15 1853.39 1855.84 1859.74 1866.6 1859.6 1858.66 1876.4 1868.44 1851.22 1845.76 1841.43 1840.78 1850.4 1862.28 1862.61 1863.13 1857.99 1857.04 1855.82 1853.9 1857.44 1861.92 1864.19 1867.12 1869.88 1876.22 1881.39 1888.08 1905.28 1909.51 1911.65 1917.83 1914.76 1920.93 1927.75 1934.64 1944.67 1944.37 1947.71 1957.31 1954.75 1948.87 1945.04 1948.02 1947.2 1949.97 1942.42 1936.47 1936.18 1929.17 1917.31 1918.85 1928.79 1938.65 1943.18 1962.23 1970.36 1954.39 1953.06 1940.39 1951.25 1951.31 1950.75 1957.74 1958.16 1959.33 1943.42 1932.2 1932.82 1927.11 1927.24 1935.93 1943.41 1924.74 1901.12 1889.53 1886.22 1890.95 1879.73 1872.44 1866.33 1860.31 1850.51 1862.86 1869.88 1882.65 1885.79 1907.04 1912.5 1899.25 1895.94 1884.46 1875.42 1877.37 1880.82 1886.16 1893.9 1869.14 1863.56 1888.28 1880.87 1899.75 1890.79 1880.96 1883.55 1869.91 1859.48 1858.07 1853.15 1849.9 1846.63 1837.28 1833.28
2210.79 2186.07 2163.32 2153.94 2151.99 2140.28 2129.66 2105.94 2081.05 2073.65 2066.42 2063.22 2058.94 2054.09 2043.22 2036.27 2021.4 2008.68 1998.94 1987.16 1971.89 1957 1948.21 1933.18 1921.78 1922.12 1914.05 1907.18 1902.14 1898.18 1894.53 1885.28 1874.67 1883 1901.7 1892.97 1896.47 1904.36 1909.59 1916.68 1908.62 1904.91 1901.2 1896.35 1891.3 1879.37 1870.48 1858.3 1864.61 1872.52 1887.72 1904.65 1885.14 1866.42 1889.29 1902.79 1885.8 1870.63 1876.9 1877.31 1872.87 1884.74 1900.91 1921.25 1936.15 1941.46 1915.66 1899.23 1899.93 1898.78 1899.63 1911.83 1918.08 1914.31 1898.84 1889.14 1885.06 1873.73 1871.58 1880.46 1883.81 1887.13 1900.48 1913.59 1933.97 1946.29 1959.6 1967.2 1988.51 2014.92 2024.74 2033.97 2049 2063.42 2069.44 2071.33 2071.96 2071.7 2070.26 2061.82 2030.85 2014.94 1989.14 1966.77 1942.94 1932.9 1922.19 1914.3 1898.83 1890.78 1897.53 1899.66 1896.59 1895.79 1895.77 1888.74 1886.77 1885.22 1890.16 1911.01 1915.73 1901.33 1892.13 1875.15 1854.23 1847.48 1852.04 1865.35 1878.71 1896.56 1927.86 1908.7 1889.16 1880.48 1873.48 1872.62 1868.66 1863.78 1871.28 1875.88 1898.72 1906.29 1913.55 1917.59 1920.17 1920.66 1897.54 1890.21 1865.41 1852.46 1849.46 1842.59 1868.42 1884.12 1886.3 1878.89 1869.29 1862.5 1847.18 1836.45 1835.13 1836.31 1832.54 1838.68 1839.66 1832.75 1821.04 1827.46 1840.33 1836.78 1829.78 1822.03 1812.49 1799.43 1793.27 1792.66 1791.68 1790.45 1789.34 1787.85 1787.26 1787.04 1786.29 1785.22 1784.42 1783.93 1784.67 1785.71 1786.59 1787.53 1789.07 1790.45 1791.84 1792.77 1793.49 1793.94 1794.39 1795.58 1797.64 1798.91 1801.95 1807.12 1818.62 1823.53 1826.82 1829.14 1831.43 1832.91 1834.75 1833.61 1843.5 1866.29 1867.87 1864.61 1848.69 1865.5 1855.32 1840.76 1837.18 1847.27 1868.48 1879.05 1878.57 1879.9 1864.54 1853.16 1843.66 1862.12 1875.35 1867.52 1874.03 1873.06 1859.79 1857.65 1844.39 1846.28 1856.35 1867.51 1873.98 1864.03 1851.44 1854.97 1841.99 1842.16 1831.08 1824.84 1831.05 1838.41 1842.48 1844.9 1852.86 1862.62 1868.74 1866.72 1860.23 1837.98 1829.98 1835.91 1835.94 1828.92 1826.55 1827.58 1831.56 1835.67 1841.2 1857.33 1863.94 1857.27 1858.3 1852.44 1868.94 1871 1860.18 1849.48 1844.12 1836.11 1848 1855.92 1856.2 1852.26 1852.42 1854.11 1851.85 1854.54 1862.24 1863.52 1866.02 1869.4 1871.26 1875.08 1882.11 1891.83 1895.69 1902.13 1903.83 1904.96 1908.61 1913.82 1919.61 1931.53 1927.42 1935.02 1944.91 1950.89 1950.58 1948.66 1947.91 1942.27 1940.25 1940.33 1948.11 1942.92 1935.37 1932.36 1925.6 1919.11 1912.22 1919.46 1927.09 1936.02 1949.98 1951.44 1947.99 1945.44 1936.77 1938.3 1945.02 1940.55 1942.39 1949.19 1943.55 1949.43 1932.12 1925.15 1922.48 1922.48 1937.65 1934.85 1909.47 1906.82 1906.58 1892.32 1877.41 1866.54 1864.62 1856.86 1859.39 1855.3 1851.24 1860.81 1867.51 1878.5 1893.04 1915.62 1907.38 1906.01 1895.85 1883.25 1874.85 1868.69 1875.34 1873.1 1866.31 1859.16 1869.12 1872.1 1894.47 1886.01 1867.67 1869.9 1864.77 1854.88 1850.17 1849.41 1849.74 1847.33 1836.79 1832.92
2254.23 2216.46 2184.58 2173.29 2166.12 2148.76 2132.45 2113.06 2097.46 2079.85 2072.06 2069.52 2070.22 2058.39 2047.9 2041.03 2029.74 2013.95 2000.27 1982.42 1975.89 1980.08 1974.46 1951.58 1944.35 1946.88 1941.27 1912.27 1904.02 1899.5 1889.32 1879.41 1887.72 1887.54 1910.8 1898.78 1917.38 1927.56 1924.16 1915.76 1904.62 1900.93 1898.3 1893.63 1892.82 1883.7 1876.56 1860.38 1870.11 1874.59 1888.59 1904.54 1897.19 1876.88 1912.39 1914.15 1897.63 1878.02 1880.06 1882.87 1880.76 1880.14 1888.35 1899.19 1919 1930.93 1918.59 1907.85 1907.03 1905.76 1907.54 1916.37 1919.48 1914.27 1898.32 1890.41 1886.4 1872.3 1876.28 1883.95 1891.49 1898.91 1912.55 1928 1956.23 1982.07 1997.61 2010.13 2031.19 2042.79 2045.85 2060.2 2069.46 2071.41 2072.46 2072.34 2071.87 2070.71 2068.16 2046 2010.95 1990.86 1974.71 1958.06 1943.64 1932.89 1920.83 1905.82 1892.3 1895.03 1906.84 1922.16 1915.49 1904.82 1902.39 1896.23 1896.89 1891.95 1895.48 1918.59 1911.45 1900.4 1893.85 1869.85 1851.14 1850.93 1855.88 1871.34 1889.13 1917.5 1917.43 1895.46 1884.13 1877.69 1874.24 1869.31 1866.21 1869.78 1890.64 1895.09 1893.69 1917.32 1918.51 1919.03 1915.38 1906.11 1887.31 1864.7 1855.74 1848.54 1846 1849.46 1879.67 1882.5 1871.31 1865.85 1853.18 1844.1 1840.53 1850.06 1852.23 1839.2 1851.65 1859.02 1845.14 1828.66 1821.7 1832.93 1842.98 1842.28 1841.13 1836.65 1822.73 1812.14 1798.34 1793.77 1791.87 1789.73 1789.12 1788.18 1787.31 1786.8 1786.14 1785.48 1784.68 1783.8 1784 1785.29 1786.78 1787.73 1788.65 1789.7 1790.79 1791.74 1792.68 1793.11 1793.23 1795.38 1797.86 1799.82 1804.77 1814.72 1820.68 1822.29 1824.37 1825.91 1827.19 1828.02 1829.2 1829.35 1827.5 1843.9 1851.54 1847.82 1838.51 1862.94 1848.4 1837.87 1831.25 1847.04 1867.85 1854.15 1860.55 1865.86 1862.67 1845.37 1840.24 1862.89 1874.3 1863.6 1870.65 1863.12 1853.67 1845.06 1840.78 1848.33 1865.38 1876.94 1861.2 1847.16 1843.76 1844.59 1836.28 1834.83 1829.25 1824.52 1837.52 1842.62 1847.96 1854.39 1864.07 1866.85 1865.32 1861.32 1862.53 1839.39 1829.58 1829.8 1835.1 1832.48 1824.06 1829.49 1834.26 1847.57 1853.97 1864.87 1856.75 1849.45 1854.78 1851.3 1857.25 1858.94 1846.16 1845.38 1839.99 1835.92 1850.86 1848.66 1847.02 1848.29 1848.75 1850.61 1850.13 1854.8 1860.72 1863.84 1869.18 1876.19 1881.31 1882.41 1885.3 1890.07 1894.62 1898.67 1898.55 1907.56 1915.23 1914.97 1917.13 1920.05 1924.27 1935.37 1932.65 1937.68 1943.29 1936.88 1939.4 1941.03 1935.38 1938.92 1947.84 1950.14 1943.97 1938.82 1937.23 1927.72 1921.5 1909.27 1913.45 1923.74 1928.76 1942.65 1946.9 1933.2 1937.97 1924.07 1930.82 1924.99 1932.07 1946.39 1924.87 1937.21 1934.25 1923.03 1917.21 1909.34 1917.04 1935.79 1908.2 1893.07 1895 1892.79 1885.89 1885.38 1874.37 1863.58 1856.93 1852.13 1851.89 1867.86 1884.32 1867.53 1872.41 1893.86 1900.22 1890.34 1899.6 1895.48 1891 1875.49 1866.96 1861.82 1859.74 1857.03 1857.42 1869.6 1891.05 1887.46 1873.25 1856.46 1852.76 1849.81 1848.41 1847.04 1847.19 1842.31 1834.32 1831.08
2308.02 2274.84 2223.85 2202.66 2191.28 2178.67 2159.02 2152.7 2130.33 2107.53 2096.73 2091.64 2081.86 2071.72 2057.23 2047.44 2038.46 2020.52 2002.15 1988.44 1980.91 1977.49 1969.96 1955.89 1965.59 1962.35 1940.33 1913.07 1904.94 1898.68 1884.87 1889.18 1893.8 1894.11 1915.84 1915.26 1927.85 1927.57 1912.56 1905.86 1899.43 1892.56 1891.91 1888.93 1881.83 1876.44 1868.72 1863.39 1870.52 1876.89 1887.37 1917.16 1910.16 1881.56 1892.3 1899.56 1898.62 1896.96 1896.96 1887.22 1887.11 1886.61 1892.48 1897.22 1904.63 1917.21 1925.35 1918.38 1913.24 1911.5 1918.95 1923.57 1921.77 1912.99 1898.52 1891.62 1886.94 1874.41 1878.74 1888.87 1902.78 1911.56 1928.02 1953.6 1979.47 2002.38 2031.73 2049.4 2055.92 2061.19 2067.22 2071.52 2073.66 2073.83 2072.54 2071.39 2069.7 2063.76 2042.06 2023.79 2002.59 1982.11 1958.01 1943.07 1932.46 1922.36 1913.89 1899.7 1899.41 1906.78 1915.44 1922.88 1906.83 1905.14 1898.64 1892.28 1897.17 1893.95 1896.89 1904.55 1901.33 1890.52 1890.48 1864.97 1849.23 1856.61 1868.19 1882.36 1912.45 1939.19 1916.85 1895.94 1884.52 1883.43 1877.73 1871.21 1867.97 1881.71 1889.49 1914.52 1903.18 1914.49 1918.74 1916.81 1907.98 1891.72 1875.53 1859.62 1850.03 1853.4 1855.46 1856.77 1876.08 1876.35 1870.93 1856.11 1859.22 1848.75 1853.61 1861.66 1847.82 1860.88 1873.15 1861.96 1843.28 1826.58 1825.95 1842.74 1845.25 1843.05 1840.56 1836.07 1828.49 1809.32 1800 1795.53 1792.33 1789.9 1789.03 1788.21 1787.27 1787.05 1786.31 1785.67 1784.67 1783.58 1783.7 1784.8 1786.22 1787.01 1787.84 1788.91 1789.91 1791.01 1792.19 1793.52 1794.71 1796.36 1798.66 1801.95 1809.96 1819.12 1820.5 1821.74 1822.77 1823.35 1824.85 1825.35 1825.44 1824.46 1821.53 1827.76 1834.25 1832.86 1834.76 1852.68 1845.14 1835.7 1829.8 1841.92 1848.4 1840.69 1847.17 1856.34 1867.22 1845.36 1837.83 1860.63 1860.62 1867.5 1857.51 1843.18 1836.83 1836.64 1844.25 1854.16 1872.34 1861.02 1846.28 1839.01 1837.97 1845.86 1831 1827.88 1827.96 1822.5 1830.41 1835.67 1839.76 1849.96 1859.44 1856.67 1860.62 1853.15 1856.85 1843.81 1837.65 1827.56 1828.71 1824.9 1823.94 1828.54 1835.39 1844.24 1859.83 1866.24 1849.89 1842.39 1844.48 1852.77 1860.42 1853.65 1846.48 1839.64 1835.35 1837.18 1840.21 1837.94 1840.29 1844.87 1849.98 1852.96 1857.69 1861.15 1867.27 1871.41 1874.89 1878.53 1881.01 1883.51 1885.15 1887.49 1891.23 1896.38 1908.03 1912.78 1918.25 1907.8 1910.95 1922.45 1923.18 1918.05 1921.72 1927.62 1934.7 1935.46 1930.23 1934.66 1931.43 1934.96 1944.22 1945.89 1941.56 1933.93 1930.3 1931.02 1928.58 1917.56 1903.48 1904.07 1920.3 1921.1 1921.9 1930.41 1925.91 1920.83 1913.19 1929.6 1938.8 1940.17 1926.81 1922.44 1938.99 1928.07 1915.45 1905.67 1913.25 1923.82 1908.83 1899.11 1882.63 1876.06 1877.16 1867.74 1865.62 1861.5 1852 1845.53 1852.88 1858.83 1866.5 1858.31 1873.84 1887.84 1882.51 1867.94 1877.73 1880.98 1891.43 1888.66 1886.33 1878.25 1869 1856.91 1854.89 1874.69 1886.03 1882.94 1885.98 1872.77 1857.09 1850.66 1842.24 1840.45 1840.74 1837.04 1832.28 1829.24
2350.6 2319.07 2276.84 2243 2231.85 2217.39 2200.24 2204.07 2173.44 2144.85 2133.34 2116.86 2091.28 2086.54 2073.07 2056.85 2052.43 2032.65 2010.84 1991.77 1983.21 1975.64 1956.86 1958.64 1966.67 1958.03 1923.61 1912.03 1902.66 1894.43 1889.72 1900.98 1897.06 1897.46 1911.84 1920.05 1919.72 1911.96 1901.53 1892.89 1887.91 1883.64 1879.99 1878.84 1872.92 1869.92 1865.82 1872.67 1872.25 1879.27 1894.43 1925.54 1912.2 1886.88 1895.33 1900.56 1905.48 1907.41 1896.92 1894.55 1897.88 1896.61 1909.9 1919.71 1917.95 1930.18 1928.62 1921.33 1917.42 1919.46 1927.18 1928.2 1924.07 1912.12 1898.59 1892.99 1888.9 1877.18 1887.58 1895.54 1908.47 1931.46 1948.67 1981.73 2014.15 2042.69 2060.22 2069.83 2070.72 2071.78 2073.45 2075.21 2074.69 2071.11 2068.29 2063.52 2049.19 2025.18 2004.36 1994.18 1984.38 1976.9 1958.04 1946.81 1933.49 1914.98 1901.69 1900.54 1902.37 1909.09 1918.17 1912.78 1894.25 1892.81 1887.97 1885.26 1884.46 1880.8 1880.67 1894.28 1881.43 1874.93 1879.82 1859.15 1851.62 1862.68 1883.4 1901.61 1923.4 1942.13 1914.74 1898.07 1891.22 1883.89 1877.91 1873.77 1868.59 1884.7 1905.76 1923.02 1921.12 1919.6 1917.38 1911.8 1888.51 1877.78 1863.95 1856.1 1855.33 1861.66 1870.4 1872.49 1895.81 1885.88 1869.34 1874.59 1854.03 1852.01 1865.02 1854.44 1866.32 1875.83 1877.59 1850.28 1834.32 1826.98 1836.41 1849.31 1846.63 1841.91 1835.43 1822.66 1812.46 1818.38 1811.96 1800.88 1794.98 1791.23 1789.18 1788.64 1787.92 1787.39 1786.66 1786.74 1785.19 1783.48 1783.41 1784.06 1784.5 1785.57 1786.95 1787.48 1789.13 1790.96 1791.72 1793.21 1795.29 1797.71 1800.55 1806.4 1818.13 1818.88 1820.02 1820.61 1821.25 1821.62 1821.97 1821.87 1821.29 1817.61 1818.76 1825.16 1827.36 1825.32 1826.85 1835.22 1835.6 1833.95 1825.09 1827.19 1837.51 1835.46 1837.94 1856.44 1862.2 1836.2 1836.33 1845.99 1861.13 1856.44 1837.83 1832.61 1837.23 1843.44 1851.81 1864.48 1861.76 1851.61 1845.17 1833.79 1832.58 1836.14 1830.55 1823.55 1822.23 1822.95 1834.17 1844.59 1855.06 1854.59 1852.97 1850.41 1854.5 1842.28 1847.3 1838.86 1836.6 1830.65 1823.39 1827.12 1834.09 1834.65 1837 1845.98 1852.5 1864.38 1861.24 1843.36 1841.25 1846.15 1852.25 1842.54 1835.24 1834.22 1833.28 1834.67 1836.46 1842.61 1848.1 1853.55 1858.12 1862.41 1870.54 1871.82 1873.19 1874.6 1874.86 1877.43 1879.31 1881.23 1883.7 1888.15 1893.81 1900.13 1906.23 1914.07 1909.05 1900.02 1913.35 1918.03 1913.35 1909.19 1918.1 1922.46 1929.72 1926.55 1919.78 1922.29 1923.92 1929.99 1942.11 1939.49 1932.69 1929.2 1919.13 1917.32 1921.73 1920.57 1909.11 1898.61 1913.37 1911.56 1923.96 1925.23 1926.83 1909.48 1918.55 1931.78 1930.83 1938.6 1932.65 1911.18 1924.69 1918.84 1911.92 1897.61 1910.85 1930.58 1927.96 1915.21 1907.66 1887.43 1876.76 1867.53 1860.57 1854.62 1850.72 1846.97 1844.55 1849.59 1852.16 1856.65 1881.75 1892.46 1883.63 1862.22 1860.07 1872.51 1875.44 1895.26 1888.17 1874.97 1861.32 1853.14 1853.35 1855.46 1859.94 1876.3 1886.69 1878 1861.4 1848.87 1842.77 1836.43 1835.11 1833.67 1830.67 1828.47
2352.2 2347.48 2315.28 2284.64 2278.89 2263.64 2242.21 2249.72 2237.75 2176.51 2146.8 2119.05 2104.73 2088.77 2079.49 2064.63 2054.92 2031.33 2007.04 1990.84 1979.43 1960.34 1945.27 1961.4 1967.82 1955.34 1929.12 1915.57 1907.62 1893.34 1912.98 1913.79 1911.16 1910.58 1918.49 1914.67 1910.74 1901.82 1892 1889.55 1887.36 1894.66 1886.8 1881.43 1885.03 1883.38 1877 1875.52 1876.88 1889.47 1906.76 1916.45 1905.19 1895.18 1904.65 1910.45 1915.4 1908.23 1900.43 1907.64 1916.27 1919.3 1923.65 1936.51 1942.15 1932.54 1934.78 1926.2 1926.11 1937.43 1942.22 1934.19 1924.24 1910.5 1899.86 1893.87 1887.91 1880.27 1895.74 1914.38 1924.63 1956.78 1983.7 2015.35 2048.08 2073.45 2073.54 2073.71 2074.68 2075.72 2076.54 2070.29 2058.92 2048.87 2036.48 2022.83 2006.17 1986.28 1972.85 1969.81 1962.14 1955.92 1945.55 1929.97 1915.53 1907.46 1908.53 1913.79 1907.83 1909.69 1915.88 1907.34 1897.85 1890.61 1885.54 1880.38 1874.9 1871.82 1870.39 1877.35 1875.48 1863.38 1862.15 1856.09 1852.87 1861.46 1873.17 1882.77 1905.59 1941.44 1920.15 1897.52 1887.17 1880.66 1879.25 1879.24 1872.08 1882.93 1904.82 1918.53 1919.46 1915.66 1913.59 1906.55 1893.9 1886.87 1866.72 1854.3 1868.71 1878.75 1889.54 1904.75 1894.85 1880.03 1880.3 1859.44 1860.8 1873.87 1872.92 1864.38 1873.41 1879.2 1875.14 1849.21 1833.38 1831.16 1844.64 1855.95 1848.68 1842.12 1835.84 1833.13 1825.95 1838.97 1822.84 1805.8 1799.05 1794.88 1791.68 1789.97 1788.68 1787.8 1787.25 1786.99 1786.59 1784.45 1783.19 1783.47 1783.14 1782.85 1782.56 1783.87 1788.25 1792.62 1799.19 1798.04 1795.57 1798.65 1804.57 1815.81 1817.68 1818.51 1819.23 1819.42 1819.75 1819.17 1818.08 1817.57 1816.11 1811.91 1816.88 1819.71 1821.74 1823.29 1823.21 1823.33 1827.05 1831.25 1830.24 1819.09 1823.94 1830.39 1840.71 1848.39 1857.29 1832.9 1831.89 1860.07 1861.49 1836.72 1831.22 1847.09 1859.82 1859.59 1849.34 1851.83 1849.68 1840 1834.47 1837.98 1826.55 1828.39 1827.6 1819.04 1819.09 1826.62 1835.58 1847.13 1854.98 1847.86 1845.52 1843.81 1852.57 1846.99 1832.93 1833.57 1833.78 1827.96 1822.12 1826.54 1835.61 1835.51 1836.28 1837.5 1842.99 1856.29 1860.72 1846.23 1834.55 1838.32 1845.68 1838.72 1830.55 1831.02 1835.72 1837.04 1840.66 1845.95 1849.02 1853.41 1856.19 1861.04 1870.33 1878.51 1880.67 1872.77 1873.07 1875.91 1881.57 1886.27 1890.13 1894.82 1903.73 1911.34 1910.63 1902.35 1900.55 1896.11 1904.26 1912.26 1905.87 1904.89 1913.17 1921.93 1923.53 1913.48 1915.33 1919.63 1933.72 1938.83 1941.64 1938.24 1934.25 1928.93 1921.89 1917.48 1909.75 1908.13 1908.68 1900.19 1897.92 1914.39 1908.89 1918.58 1918.04 1904.27 1913.1 1923.66 1930.11 1949.76 1927.21 1911.05 1904.09 1915.56 1906.17 1899.43 1898.44 1914.44 1913.9 1923.67 1903.86 1882.3 1879.86 1865.64 1859.97 1861.77 1859.52 1853.18 1848.2 1842.75 1846.87 1858.05 1880.04 1876.77 1879.85 1872.89 1859.42 1857.95 1877.23 1890.51 1889.2 1877.54 1868.35 1857.56 1849.58 1848.1 1850.75 1868.88 1884.77 1860.26 1856.43 1849.23 1843.17 1840.05 1834.51 1832.03 1830.08 1827.8
2350.67 2351.77 2341.23 2325.26 2317.58 2299.1 2279.38 2279.26 2270.76 2233.28 2166.77 2126.62 2108.01 2085.51 2072.15 2056.94 2048.81 2027.77 2006.22 1988.54 1967.25 1949.01 1941.58 1943.8 1947.32 1948.58 1935.27 1918.2 1905.26 1907.06 1931.97 1932.27 1925.32 1921.11 1915.39 1909.3 1903.41 1895.02 1891.73 1899.13 1893.66 1910.64 1894.32 1883.93 1902.96 1900.21 1885.16 1884.6 1891.61 1906.27 1929.31 1921.27 1903.23 1901.37 1911.02 1927.16 1919.17 1913.48 1906.63 1915.97 1925.84 1937.99 1951.84 1962.24 1965.76 1948.43 1940.42 1935.68 1946.21 1960.73 1949.61 1936.8 1923.61 1911.13 1900.38 1890 1883.93 1895.66 1912.33 1920.57 1949.73 1975.84 2017.72 2048.53 2073.64 2076.44 2075.95 2076 2076.68 2077.32 2071 2045.94 2027.86 2015.69 2003.85 1992.28 1977.24 1958.35 1946.42 1949.57 1948.77 1930.61 1928.51 1917.5 1915.14 1916.54 1919.47 1923.18 1920.94 1913.38 1900.51 1900.36 1900.28 1896.55 1889.89 1886.25 1885.26 1879.28 1868.02 1864.36 1862.28 1858.52 1857.49 1856.98 1853.54 1862.52 1878.28 1888.26 1910.93 1942.61 1920.66 1895.34 1887.1 1885.9 1883.68 1878.72 1877.63 1876.34 1888.08 1899.49 1906.16 1910.46 1906.66 1906.05 1897.36 1878.3 1862.56 1857.17 1882.16 1913.65 1917.37 1898.73 1896.5 1894.16 1873.94 1860.88 1880.55 1889.6 1878.15 1875.53 1879.11 1880.01 1859.56 1842.4 1836.51 1832.59 1846.22 1856.91 1864.31 1851.16 1848.84 1834.38 1836.79 1824.94 1814.55 1820.32 1807.24 1801.2 1797.69 1794.95 1789.51 1788.67 1788.05 1787.73 1787.49 1787.71 1785.97 1783.43 1782.92 1783.11 1782.92 1782.12 1785 1793.43 1814.68 1798.27 1793.42 1796.15 1803 1811.2 1816.97 1816.87 1817.18 1817.93 1818.14 1818.17 1814.07 1815.64 1810.89 1808.65 1812.84 1818.26 1817.58 1819.08 1819.27 1817.74 1820.98 1825.93 1825.1 1815.31 1822.98 1832.39 1835.05 1838.52 1852.57 1839.34 1827.53 1835.74 1838.01 1825.53 1835.77 1851.09 1860.61 1852.72 1839.2 1842.81 1840.45 1830.78 1831.26 1830.26 1826.65 1819.8 1824.62 1816.73 1824.56 1834.61 1837.58 1839.18 1854.49 1855.83 1841.53 1840.98 1848.97 1846.1 1829.34 1827.2 1826.7 1824.92 1820.28 1822.31 1827.84 1829.14 1830.66 1835.99 1842.73 1856.08 1845.65 1838.29 1834.88 1832.82 1834.22 1828.63 1830.36 1834.7 1838.95 1842.31 1843.22 1843.16 1848.82 1853.51 1858.4 1867.34 1875.49 1874.74 1874.12 1869.07 1868.31 1873.45 1876.17 1879.82 1884.06 1887.85 1898.05 1902.41 1906.26 1894.89 1896.11 1895.43 1896.67 1904.5 1901.66 1908.81 1910.14 1918.71 1914.7 1910.26 1914.65 1927.8 1936.44 1949.23 1951.52 1939.97 1939.51 1931 1933.12 1924.85 1915.2 1907.05 1902.45 1896.5 1900.2 1900.52 1901.28 1914.38 1898.5 1904.36 1925.07 1928.33 1921.79 1918.32 1910.41 1908.91 1898.14 1901.46 1913.06 1895.13 1895.88 1901.84 1906.88 1911.42 1887.31 1879.82 1871.03 1867.61 1871.63 1862.99 1855.01 1857.87 1850.46 1846.62 1839.63 1852.71 1849.63 1852.9 1864.3 1854.67 1854.1 1850.67 1872.57 1877.45 1869.16 1885.73 1879.02 1859.82 1852.47 1845.59 1846.7 1857.36 1866.17 1853.31 1846.07 1848.38 1844.18 1835.74 1833.39 1830.72 1829.3 1826.69
2349.78 2348.22 2345.56 2338.75 2332.85 2318.47 2309 2295.51 2273.37 2255.58 2202.93 2136.1 2104.55 2080.55 2064.63 2053.91 2044.58 2024.91 2003.37 1975.72 1954.16 1948.2 1943.37 1931.19 1930.88 1934.43 1927.44 1911.19 1912.1 1917.15 1922.09 1920.21 1914.76 1916.07 1911.33 1903.38 1897.27 1896.22 1898.22 1909.02 1904.46 1902.71 1895.6 1888.01 1910.44 1916.4 1891.99 1897.38 1903.31 1917.44 1943.25 1916.98 1914.09 1909.06 1906.97 1933.74 1945.22 1924.55 1915.41 1918.37 1929.41 1943.35 1974.62 2006.44 1992.88 1962.17 1957.07 1950.96 1971.9 1975.68 1957.04 1941.23 1928.63 1914.22 1901.62 1886.79 1894.22 1913.32 1929 1942.91 1971.45 2009.11 2048.99 2074.36 2076.87 2077.74 2077.46 2077.3 2077.16 2074.18 2048.73 2021.31 2004.15 1992.71 1978.66 1961.03 1952.62 1942.6 1944.28 1931.77 1930.52 1922.51 1918.18 1919.76 1927.53 1933.86 1927.93 1928.78 1916.94 1910.81 1893.92 1890.26 1887.26 1883.18 1880.84 1878.97 1877.33 1872.24 1867.76 1866.94 1864.02 1876.44 1879.51 1859.57 1855.09 1861.85 1869.05 1878.88 1900.91 1935.14 1923.3 1901.15 1895.43 1886.48 1884.67 1884.9 1881.81 1877.49 1881.86 1887.9 1896.16 1901.98 1897.57 1894.78 1886.24 1868.75 1860.27 1868.78 1888.7 1922.41 1914.5 1913.54 1905.95 1892.02 1884.71 1871.6 1900.55 1895.74 1888.45 1888.74 1889.09 1880.87 1855.08 1852.4 1836.4 1833.99 1850.72 1877.1 1884.28 1864.67 1850.76 1853.87 1841.29 1825.91 1843.2 1839.77 1829.65 1816.75 1805.19 1799.67 1794.3 1792.74 1789.04 1788.49 1788.72 1790.61 1789.57 1788.57 1787.15 1786.27 1784.49 1782.96 1781.7 1786.92 1791.09 1790.08 1787.07 1786.4 1786.27 1787.81 1797.86 1797.51 1803.01 1808.38 1811.88 1815.39 1812.4 1812.55 1801.28 1810.1 1814.88 1815.15 1815.92 1817.04 1816.46 1814.31 1817.72 1820 1817.21 1811.22 1824.02 1826.4 1829.37 1838.67 1848.19 1847.1 1830.85 1823.23 1822.11 1831.5 1845.82 1851.82 1862.26 1850.13 1835.33 1832.23 1834.13 1832.42 1824.25 1824.41 1820.12 1814.67 1815.41 1819.04 1823.62 1830.22 1836.75 1845.76 1854.65 1852.18 1835.33 1835.91 1842.88 1837.41 1826.15 1821.76 1817.57 1817.4 1820.85 1827.83 1830.79 1835.58 1835.04 1841.49 1846.87 1856.21 1843.89 1833.89 1830.57 1830.69 1827.03 1826.78 1832.22 1835.25 1839.13 1848.57 1849.09 1847.68 1852.58 1859.93 1869.82 1880.7 1882.24 1874.33 1867.73 1864.87 1864.52 1866.73 1871.12 1876.41 1882.43 1889.5 1898.85 1907.25 1900.48 1890.48 1886.76 1889.96 1890.89 1903.1 1898.14 1904.72 1901.45 1909.03 1902.7 1910.13 1923.85 1933.34 1940.33 1942.07 1946.44 1950.09 1941.62 1939.66 1932.87 1926.02 1921.08 1917.62 1909.43 1900.03 1891.34 1887.66 1899.43 1901.03 1893.43 1908.94 1918.73 1917.17 1939.78 1931.27 1927.35 1915.65 1910.46 1896.7 1891.98 1887.91 1882.69 1898.29 1913.97 1917.73 1892.91 1882.89 1883.7 1876.95 1866.99 1861.79 1866.02 1857.37 1852.85 1846.27 1839.06 1843.8 1844.26 1854.54 1870.84 1859.29 1844.55 1848.91 1875.07 1868.79 1856.55 1863.06 1881.86 1871.57 1853.04 1845.22 1841.2 1844.86 1845.31 1847.51 1839.88 1842.02 1839.26 1835.92 1831.68 1828.47 1826.71 1824.67
2348.96 2346.62 2341.7 2342.44 2336.22 2324.04 2313.83 2294.84 2264.95 2239.8 2216.34 2144.24 2101.99 2074.98 2062.43 2051.08 2037.3 2016.82 1994.21 1967.97 1962.36 1953.66 1942.13 1928.09 1922.53 1922.04 1920.28 1928.02 1938.29 1930.19 1923.87 1921.63 1914.02 1908.87 1905.24 1901.72 1900.83 1901.61 1904.7 1917.21 1911.32 1910.1 1900.68 1890.62 1906.64 1917.44 1916.21 1909.6 1914.73 1935.26 1939.92 1919.88 1927.46 1918.18 1908.12 1927.93 1949.68 1935.03 1923.81 1922.96 1932.99 1947.81 1983.61 2031.59 2016.52 1985.57 1991.33 1980.99 1973.3 1957.85 1947.47 1932.19 1924.92 1916.2 1902.32 1888.42 1897.44 1923.87 1948.78 1979.17 2001.03 2042.32 2075.02 2078.31 2078.49 2078.12 2077.36 2076.74 2074.89 2056.76 2029.66 2005.31 1987.36 1970.47 1962.19 1964.93 1962.53 1957.7 1942.79 1933.11 1927.44 1935.21 1930.19 1930.97 1943.33 1952.86 1928.45 1911.79 1900.84 1896.69 1895.49 1899.01 1897.76 1895.12 1890.36 1883.26 1886.99 1885.11 1886.32 1878.89 1881.77 1891.99 1877.64 1857.21 1859.09 1863.56 1877.11 1896.7 1908.59 1939.16 1935.81 1909.61 1896.05 1890.66 1892.2 1888.88 1883.65 1880.34 1885.71 1890.04 1897.01 1896.9 1895.44 1883.58 1869.96 1862.16 1861.8 1882.29 1890.86 1920.13 1924.07 1920.8 1915.93 1904.24 1877.39 1882.54 1905.37 1905.65 1898.26 1895.41 1893.66 1886.52 1867.61 1843.49 1835.26 1841.17 1869.23 1893.94 1898.47 1872.6 1856.71 1863.81 1842.63 1844.22 1864.42 1858.38 1829.97 1816.95 1822.47 1814.68 1801.88 1796.59 1792.82 1790.38 1793.45 1793.31 1792.5 1789.35 1788.01 1787.53 1786.21 1783.93 1781.87 1782.37 1784.5 1785.06 1785.1 1784.86 1784.9 1785.46 1785.94 1785.53 1785.19 1787.12 1795.3 1806.62 1805.34 1807.6 1801.13 1812.48 1811.71 1811.79 1813 1813.44 1812.02 1811.17 1814.17 1816.34 1809.05 1817.32 1818.61 1823.93 1835.81 1843.31 1845.31 1841.69 1821.55 1817.73 1822.86 1841.44 1860.55 1864.98 1866.32 1854.21 1837.47 1828.04 1825.84 1829.08 1824.7 1817.63 1816.22 1812.77 1820.3 1824.89 1829 1829.89 1833.08 1840.92 1853.51 1855.71 1845.35 1829.95 1832.24 1830.11 1825.86 1817.14 1820.26 1824.22 1825.06 1829.17 1831.9 1842.17 1845.63 1844.05 1853.05 1855.53 1846.34 1836.15 1829.89 1830.23 1825.97 1829.9 1833.22 1837.32 1839.94 1842.35 1848.48 1851.24 1855.61 1860.96 1865.43 1872.49 1884.37 1876.91 1867.63 1862.36 1860.93 1864.06 1870.11 1880.17 1883.44 1886.66 1893.92 1893.94 1890.82 1888.1 1883.34 1881.19 1894.15 1897.54 1890.84 1892.91 1899.38 1898.35 1909.37 1921.44 1923.32 1929.14 1927.96 1934.02 1944.42 1957.28 1947.76 1939.41 1931.69 1922.08 1914.73 1909.8 1903.54 1909.38 1906.23 1894.34 1884.99 1893.95 1890.25 1896.37 1900.7 1916.37 1929.02 1931.8 1918.94 1912.26 1914.19 1910.13 1907.55 1894.69 1882.76 1885.64 1894.52 1904.37 1912.27 1909.94 1884.88 1873.62 1876.37 1877.04 1870.97 1855.63 1849.93 1845.26 1837.96 1838.02 1835.27 1842.32 1851.64 1850.88 1841.4 1845.77 1865.82 1851.73 1847.75 1861.37 1876.7 1880.86 1860.38 1847.73 1841.62 1837.54 1837.11 1837.94 1836.78 1834.97 1835.35 1840.41 1829.03 1825.57 1824.36 1822.55
2348.07 2345.77 2341.45 2330.66 2328.76 2322.23 2310.74 2293.13 2266.34 2235.92 2190.64 2136.75 2100.13 2072.88 2060.27 2050.34 2022.27 2004.7 1988.6 1984.27 1969.92 1947.31 1933.18 1941.37 1958.28 1959.23 1960.36 1969.7 1966.21 1959.59 1949.45 1946.15 1932.07 1917.06 1919.44 1909.43 1907.19 1915.44 1911.9 1919.31 1922.15 1917.34 1899.27 1899.33 1904.1 1924.98 1928.95 1921.45 1937.91 1949.32 1935.47 1941 1945.47 1929.5 1913.54 1927.82 1937.13 1947.97 1938.79 1929.84 1935.46 1948.25 1977.01 2005.02 2040.12 2023.3 2032.77 2008.34 1977.05 1952.58 1942.89 1934.22 1924.47 1912.8 1903.57 1891.32 1899.09 1930.33 1973.04 2013.17 2036.68 2073.74 2080.53 2079.32 2078.37 2077.51 2076.21 2073.14 2059.41 2038.97 2015.52 1994.52 1976.02 1975.23 1980.46 1976.23 1961.72 1947.89 1935.54 1930.23 1942.6 1952.23 1938.15 1936.47 1958.74 1950.87 1928.22 1912.23 1905.95 1910.61 1913.64 1921.64 1924.01 1911.85 1898.24 1904.08 1907.01 1907.57 1900.75 1904.51 1903.31 1896.06 1878.82 1858.38 1861.83 1869.26 1891.2 1921.17 1941.24 1947.67 1946.71 1923.75 1905.27 1899.33 1897.05 1889.91 1883.67 1888.23 1889.87 1896.5 1897.42 1895.49 1891.78 1885.98 1877.38 1865.56 1871.66 1889.83 1919.1 1929.97 1929.49 1926.31 1921.98 1899.55 1878.53 1898.12 1912.68 1913.41 1909.62 1905.91 1899.67 1879.91 1857.56 1854.72 1839.13 1842.05 1874.37 1905.72 1898.19 1872.53 1870.75 1878.29 1851.01 1859.11 1871.64 1842.85 1841.87 1845.98 1838.19 1822.86 1809.38 1801.12 1801.26 1797.56 1796.12 1795.28 1793.47 1791.26 1788.97 1787.89 1787.3 1785.5 1782.57 1781.49 1782.48 1783.1 1783.55 1783.64 1783.75 1783.87 1783.51 1782.76 1781.08 1781.16 1781.77 1786.81 1795.7 1800.41 1796.27 1798.88 1803.43 1810.96 1809.77 1811.47 1805.88 1807.53 1811.37 1808.39 1806.65 1815.73 1818.64 1824.44 1832.43 1834.06 1841.07 1834.36 1816.95 1822.13 1830.08 1846.63 1853.58 1862.86 1856.93 1845.79 1834.2 1829.61 1823.78 1823.33 1820.48 1816.68 1811.79 1813.7 1821.48 1826.2 1831.1 1841.64 1851.08 1853.73 1852.79 1849.56 1841.06 1829.85 1824.43 1824.83 1825.06 1815.65 1819.19 1820.14 1825.53 1829.16 1831.33 1834.74 1842.85 1849.7 1849.47 1834.41 1832.84 1830.42 1827.18 1829.24 1824.1 1830.72 1835.66 1841.67 1850.46 1847.49 1850.16 1854.21 1859.58 1866.87 1875.83 1873.2 1870.72 1873.33 1871.76 1860.42 1857.75 1863.44 1870.61 1879.4 1875.26 1883.93 1882.25 1883.34 1888.65 1882.76 1878.59 1880.25 1881.83 1884.92 1890.52 1900.67 1906.37 1911.78 1912.06 1922.68 1927.96 1922.95 1925.31 1934.35 1945.54 1950.92 1940.14 1936.63 1934.88 1930.85 1924.77 1915.71 1914.16 1906.33 1901.65 1896.4 1886.46 1879.76 1881.52 1899.81 1908.33 1903.02 1936.83 1934.62 1932.46 1935.81 1924.69 1914.82 1906.05 1899.84 1887.83 1875.12 1886.69 1900.41 1893.85 1910.5 1895.84 1884.46 1870.72 1864.37 1856.29 1851.2 1851.87 1849.42 1849.36 1841.48 1837.22 1835.7 1840.68 1840.08 1836.75 1850.42 1858.9 1840.02 1852.71 1854.76 1857.98 1882.39 1869.34 1851.84 1841.93 1838.21 1834.94 1833.83 1832.89 1831.49 1831.66 1835.17 1826.34 1822.83 1821.26 1818.67
2349.12 2345.97 2340.39 2319.24 2309.44 2310.91 2302.86 2293.77 2277.83 2246.58 2195.18 2144.29 2109.54 2078.74 2059.01 2053.24 2033.57 2013.61 2002.45 2000.4 1968.45 1939.19 1954.37 1981.52 1986.46 1988.83 1992.45 2011.86 2005.99 2001.92 1992.35 1981.52 1950.57 1944.83 1933.97 1930.66 1917.58 1921.14 1914.91 1929.85 1921.08 1908.71 1910.93 1904.11 1902.74 1912.3 1916.94 1934.86 1948.27 1932.81 1937.06 1954.3 1958 1933.26 1919.44 1929.23 1936.79 1945.1 1959.48 1943.65 1937.07 1946.31 1963.19 1987.02 2033.26 2050.97 2045.17 2014.17 1985.98 1976.89 1956.65 1938.77 1925.08 1915.26 1907.26 1896.46 1905.62 1950.03 1995.74 2043.05 2073.01 2082.2 2080.32 2078.51 2076.86 2075.44 2068.03 2052.31 2037.16 2019.61 1996.7 1980.18 1982.71 1977.85 1962.17 1955.18 1943.99 1939.44 1934.75 1934.54 1940.77 1951.79 1945.3 1939.34 1962.67 1947.89 1924.69 1919.45 1911.36 1926.21 1928.62 1942 1939.68 1929.34 1925.16 1928.88 1928.52 1919.08 1907.04 1915.68 1901.46 1895.15 1871.58 1859.39 1864.03 1878.76 1895.07 1911.49 1928.03 1935.43 1953.26 1939.61 1914.51 1904.17 1895.39 1890.69 1886.86 1895.35 1902.74 1906.31 1903.7 1896.07 1890.34 1885.8 1877.27 1866.49 1872.92 1893.28 1928.92 1935.69 1934.86 1931.34 1924.28 1899.82 1893.46 1917.16 1918.65 1920.79 1920.78 1915.53 1898.96 1877.45 1868.55 1850.64 1839.41 1844.67 1860.93 1902.25 1913.4 1885.28 1892.04 1878.41 1864.56 1880.84 1879.86 1859.07 1879.87 1878.73 1853.54 1835.37 1834.59 1821.6 1814.59 1802.15 1798.52 1799.32 1795.54 1792.23 1789.94 1788.14 1787.5 1786.45 1783.18 1781.14 1781.66 1781.96 1782.39 1782.71 1782.72 1782.41 1781.72 1781.5 1781.07 1780.32 1780.34 1780.79 1783.06 1785.51 1787.01 1788.71 1793.85 1803.53 1808.76 1811.57 1802.33 1805.21 1800.8 1803.83 1809.73 1811.74 1817.87 1820.65 1821.47 1827.05 1829.83 1824.57 1816.25 1821.54 1843.24 1853.33 1854.86 1851.14 1845.6 1836.84 1831.23 1823.49 1823.36 1817.29 1817.89 1812.16 1811.26 1822.75 1835.13 1834 1835.76 1840.88 1853.33 1848.29 1848.33 1848.74 1835.36 1829.94 1824.44 1819.42 1822.44 1816.44 1816.46 1822.15 1825.06 1832.64 1838.03 1840.16 1849.07 1845.78 1847.31 1835.94 1828.85 1826.66 1822.68 1822.8 1826.7 1831.01 1836.43 1843.21 1852.87 1856.33 1856.67 1861.1 1861.33 1862.38 1863.16 1865.82 1860.71 1872.63 1870.85 1859.65 1854.31 1860.97 1867.05 1876.88 1869.51 1872.17 1872.38 1875.37 1880.51 1878.61 1877.6 1885.55 1890.67 1891.15 1899.5 1905.93 1913.24 1911.27 1906.42 1912.31 1921.1 1916.07 1923.23 1937.43 1936.41 1937.84 1932.71 1923.47 1925.04 1920.42 1918.39 1924.13 1925.09 1918.58 1913.82 1906.69 1894.41 1882.6 1876.49 1891.84 1892.49 1901.95 1915.18 1921.03 1926.55 1931.83 1931.09 1915.02 1900.91 1889.66 1880.38 1872.76 1884.49 1881.12 1880.01 1900.55 1905.4 1886.14 1874.83 1862.35 1860.41 1860.35 1855.66 1862.54 1849.16 1839.87 1836.81 1832.16 1830.43 1831.69 1834.14 1841.88 1840.15 1839.58 1849.19 1837.5 1855.51 1866.22 1871.75 1854.26 1858.78 1849.35 1837.72 1833.54 1830.2 1833.03 1829.75 1827.97 1823.15 1820.71 1818.48 1816.65
2349.22 2343.53 2331.12 2305.02 2284.91 2287.93 2284.21 2284.69 2268.91 2224.84 2167.96 2124.54 2095.3 2067.41 2044.25 2034.29 2024.09 2014.46 1989.17 1969.36 1946.76 1946.82 1978.39 2016.79 2030.36 2022.84 2025.25 2047.27 2044.36 2037.67 2020.3 1996.36 1977.14 1967.84 1962.7 1966.32 1930.88 1921.43 1918.46 1928.33 1918.25 1917.17 1917.88 1908.16 1917.99 1912.96 1913.73 1918.6 1924.4 1929.49 1935.83 1945.74 1961.81 1943.62 1930.73 1930.22 1940.89 1945.14 1961.66 1964.48 1943.2 1945.15 1960.43 1988.97 2024.03 2052 2050.11 2031.2 2020.89 1984.84 1951.99 1936.77 1925.24 1915.96 1908.55 1896.96 1919.75 1966.4 2014.84 2068.48 2082.15 2082.85 2078.9 2075.98 2070.08 2054.01 2031.14 2017.49 2006.15 1996.24 1991.78 1988.11 1968.75 1954.46 1950.6 1947.86 1945.52 1950.33 1939.77 1943.14 1944.1 1954.67 1952.39 1946 1967.66 1957.49 1938.79 1932.78 1920.61 1929.18 1949.29 1941.59 1933.99 1926.64 1919.83 1920.98 1918.35 1912.07 1909.59 1904.86 1885.88 1869.66 1866.72 1861.37 1879.08 1900.81 1908.61 1902.93 1912.35 1911.22 1941.06 1946.61 1920.82 1906.75 1900.41 1891.59 1895.74 1905.31 1908.49 1905.22 1898.77 1897.34 1885.17 1872.23 1871.31 1867.94 1878.47 1894.01 1922.84 1941.18 1940.71 1935.67 1925.87 1905.16 1911.38 1926.25 1926.16 1927.91 1925.01 1913.09 1898.84 1889.7 1862.19 1846.92 1841.3 1841.73 1874.87 1903.55 1920.16 1907.81 1893.89 1896.43 1896.43 1908.96 1904.41 1890.68 1907.27 1905.41 1868.28 1841.72 1838.73 1818.65 1808.77 1801.97 1807.17 1829.14 1805.4 1792.65 1789.74 1787.76 1786.81 1786.26 1783.55 1781.56 1781 1781.01 1781.6 1782.06 1782.42 1782.1 1781.36 1780.86 1780.55 1779.96 1779.72 1780.21 1781.02 1782.3 1783.49 1784.61 1786.56 1790.88 1795.21 1802.69 1802.39 1801.16 1796.58 1802.51 1808.14 1812.88 1815.13 1817.12 1815.87 1824.56 1823.91 1818.95 1812.22 1821.69 1843.67 1842.24 1838.14 1837.43 1833.35 1832.85 1826.07 1823.33 1817.99 1816.59 1809.52 1809.19 1812.33 1823.18 1829.03 1837.79 1847.15 1851.92 1851.82 1849.26 1842.48 1847.14 1840.16 1833.54 1829.07 1823.54 1817.81 1817.5 1812.57 1821.96 1826.91 1828.95 1831.43 1841.27 1850.8 1842.73 1833.61 1831.58 1826.77 1823.88 1820.06 1826.8 1832.36 1834.59 1838.29 1842.34 1849.67 1860.88 1861.19 1859.07 1866.96 1860.92 1856.54 1857.49 1856.28 1867.06 1874.03 1857.59 1852.77 1856.7 1862.31 1864.31 1864.32 1862.85 1862.64 1870.16 1877.42 1873.37 1876.87 1891.64 1897.61 1901.46 1907.08 1902.18 1901.17 1905.64 1902.57 1909.7 1910.67 1915.54 1924.4 1930.42 1929.46 1938.42 1926.44 1920.5 1912.79 1911.09 1907.8 1917.06 1916.67 1912.98 1907.21 1908.94 1902.07 1897.37 1881.95 1874.77 1883.17 1897.37 1899.5 1912.12 1917.39 1919.09 1924.71 1923.93 1904.58 1890.78 1886.77 1874.15 1872.12 1871.35 1880.73 1884.17 1893.23 1892.91 1877.74 1878.56 1882.43 1870.61 1863.28 1856.95 1845.81 1841.06 1845.8 1840.19 1835.51 1829.09 1828.78 1832.29 1834.57 1836.15 1835.12 1838.91 1847.26 1847.4 1855.76 1856.97 1861.13 1857.97 1851.61 1840.47 1829.38 1829.88 1834.87 1823.52 1821.01 1818.59 1816.69 1814.47
2347.83 2334.87 2315.15 2290.87 2271.61 2251.61 2251.9 2269.24 2239.57 2196.38 2159.76 2123.39 2092.31 2068.54 2040.53 2015.17 2004.82 1990.79 1967.81 1948.77 1965.89 1986.99 2015.37 2042.63 2065.19 2065.83 2065.32 2082.81 2082.26 2074.68 2051.89 2020.95 2001.19 1975.24 1955.62 1944.05 1926.81 1935.26 1924.66 1936.76 1932.4 1922.6 1922.12 1912.59 1926.61 1931.03 1925.02 1923.73 1923.03 1928.43 1935.95 1945.07 1964.73 1950.9 1939.18 1937.31 1944.78 1949.57 1963.71 1978.92 1952.18 1948.18 1955.26 1972.16 2001.75 2042.04 2053.43 2052.03 2039.61 1992.99 1966.24 1946.95 1930.18 1915.95 1906.22 1901.47 1939.9 1984.22 2031.13 2080.09 2084.71 2083.67 2076.06 2059.36 2037.49 2019.16 2013.38 2011.07 2009.36 2008.44 1996.9 1973.86 1964.69 1966.85 1964.43 1957.82 1954.04 1950.58 1953.21 1955.69 1955.24 1958.06 1952.98 1952.93 1964.09 1951.66 1940.19 1939.35 1940.71 1942.05 1945.26 1928.73 1921.14 1914.98 1910.35 1907.06 1905.64 1902.49 1900.83 1887.08 1874.77 1874.96 1878.21 1864.85 1873.76 1882.08 1884.92 1901.08 1901.73 1908.02 1939.18 1954.18 1929.31 1910.54 1902.47 1893.7 1906.69 1914.15 1905.19 1898.42 1893.29 1894.24 1887.28 1871.85 1878.65 1876.31 1882.7 1895.74 1908.61 1935.37 1944.24 1937.16 1931.18 1920.71 1922.13 1931.7 1933.35 1933.14 1926.04 1894.03 1879.13 1870.32 1855.8 1841 1840.93 1844.44 1867.4 1890.58 1918.15 1922.71 1911.67 1914.02 1918.33 1918.31 1916.06 1915.34 1914.57 1887.52 1860.64 1832.46 1822.71 1811.63 1803.79 1807.63 1835.05 1839.59 1810.95 1793.27 1788.97 1787.41 1786.91 1785.7 1784.05 1782.64 1781.92 1781.16 1780.67 1781.32 1781.86 1782.07 1781.43 1780.69 1780.08 1779.55 1779.44 1779.77 1780.26 1780.67 1781.41 1782.09 1782.44 1781.57 1781.52 1786.59 1799.84 1790.78 1797 1802.82 1808.43 1809.72 1812.25 1810.55 1814.81 1821.44 1821.02 1817.2 1809.88 1818.91 1832.66 1832.43 1830.48 1830.95 1830.8 1823.87 1822 1824.07 1822.5 1812.4 1806.39 1811.54 1820.3 1821.69 1825.49 1830.6 1843.89 1850.34 1848.84 1847.33 1839.84 1840.67 1828.76 1824.3 1829.66 1825.95 1819.14 1814.06 1811.63 1819.02 1819.96 1823.88 1828.56 1834.31 1847.5 1843.31 1833.22 1828.16 1824.97 1819.09 1825.01 1830.63 1835.96 1839.63 1847.22 1845.11 1847.07 1848.92 1847.7 1848.66 1853.01 1855.39 1853.74 1850.65 1854.32 1866.95 1872.34 1853.58 1850 1851.99 1853.08 1853.76 1855.92 1859.63 1866.28 1863.86 1866.33 1871.34 1880.21 1887.22 1896.57 1900.8 1897.05 1890.89 1890.1 1892.8 1898.39 1901.93 1908.86 1911.25 1918.97 1923.64 1939.17 1946.62 1931.94 1924.12 1915.92 1904.2 1904.4 1906.56 1905.1 1902.28 1899.12 1898.03 1905.68 1898.5 1893.45 1877.07 1880.01 1883.75 1901.6 1896.55 1900.03 1911.38 1910.9 1926.97 1914.55 1906.85 1892.46 1880.08 1871.12 1864.75 1873.36 1871.79 1876.68 1892.76 1896.53 1874.73 1869.59 1858.53 1853.23 1849.7 1843.53 1849.62 1849.49 1841.32 1837.83 1834.26 1833.28 1826.62 1825.44 1828.53 1830.19 1839.41 1844.48 1835.56 1839.49 1845.19 1848.51 1864.02 1850.54 1836.63 1834.23 1825.03 1827.64 1822.44 1819.18 1817.03 1813.53 1811.89
2348.17 2329.32 2305.38 2290.61 2278.21 2241.86 2215.02 2240.61 2199.66 2165.05 2147.02 2125.19 2087.66 2074.71 2042.55 2011.49 1991.92 1983.96 1959.42 1974.42 2004.87 2036.05 2064.57 2085.7 2104.29 2111.84 2119 2125.06 2125.88 2112.9 2084.86 2043.93 2010.07 1986.23 1958.01 1940.08 1933.33 1935.43 1930.96 1936.48 1937.06 1930.85 1923.39 1921.59 1935.92 1934.18 1931.56 1933.77 1934.98 1930.04 1938.64 1956.13 1970.41 1953.02 1945.29 1943.39 1949.92 1964 1974.29 1986.73 1960.79 1955.98 1961 1968.3 1997.89 2033.29 2054.98 2056.4 2037.55 1996.85 1971.99 1952.43 1931.32 1913.45 1903.07 1914.32 1956.86 2000.83 2045.37 2085.21 2087.67 2083.55 2061.62 2037.16 2043.71 2051.25 2047.35 2032.32 2010.65 1992.09 1983.1 1969.77 1970.64 1986.15 1982.31 1972.56 1966.55 1956.73 1971.67 1981.83 1968.32 1961.39 1952.48 1957.38 1960.29 1947.61 1937.2 1934.13 1936.72 1940.34 1935.79 1930.62 1925.46 1920.58 1919.33 1906.34 1895.62 1890.05 1893.96 1880.76 1887.96 1882.17 1874.99 1864.24 1867.38 1873.37 1886.61 1895.4 1889.18 1912.05 1943.19 1958.7 1933.3 1914.25 1903.34 1899.06 1913.58 1909.4 1902 1893.08 1887.16 1884.3 1881.84 1873.92 1876.83 1881.05 1883.24 1891.27 1902.82 1916.76 1921.98 1921.21 1920.4 1915.99 1913.16 1934.19 1939.31 1932.5 1926.14 1904.25 1871.14 1858.28 1844 1843.7 1852.49 1850.13 1855.09 1873.44 1892.54 1925.42 1919.66 1918.22 1910.78 1916.38 1910.86 1903.05 1881.91 1868.03 1839.64 1821.09 1809.68 1811.36 1812.76 1834.45 1840.77 1817.26 1801.15 1793.46 1788.02 1787.33 1786.68 1785.69 1784.71 1783.45 1782.73 1782.05 1781.19 1780.36 1780.97 1781.9 1781.74 1781.05 1780.16 1779.4 1779.15 1779.41 1779.52 1779.62 1779.85 1779.95 1779.57 1778.57 1778.88 1782.53 1788.51 1788.97 1802.54 1804.15 1806.38 1805.49 1807.27 1804.35 1813.41 1818.14 1818.01 1815.97 1809.66 1812.46 1821.99 1826.54 1826.91 1826.13 1830.06 1825.28 1817.67 1818.95 1816.44 1809.35 1805.57 1813.63 1820.8 1824.29 1830.16 1842.25 1845.02 1847.99 1846.09 1836.74 1831.19 1838.89 1826.5 1819.17 1824.03 1813.15 1811.84 1811.93 1814.34 1819.21 1822.14 1824.73 1825.44 1832.71 1843.7 1840.52 1833.34 1827.04 1822.83 1818.15 1822.14 1826.48 1829.57 1837.72 1845.4 1835.66 1836.12 1845.21 1842 1843.58 1845.59 1846.3 1847.19 1848.36 1855.55 1859.05 1857.62 1849.53 1848.37 1851.56 1855.86 1862.09 1872.54 1877.79 1881.56 1880.83 1880.36 1883.75 1888.23 1885.65 1890.33 1899.68 1887.26 1886.35 1898.54 1903.39 1907.26 1911.95 1911.55 1919.79 1925.53 1924.7 1933.4 1936.45 1930.07 1922.25 1917.5 1903.66 1894.91 1893.7 1897.34 1888.75 1888.07 1898.36 1903.52 1900.03 1893.53 1874.35 1866.98 1888.24 1898.47 1881.95 1885.29 1909.42 1902.28 1918.45 1919.82 1901.69 1898.46 1885.62 1870.69 1863.48 1859.61 1864.76 1879.3 1878.28 1893.49 1877.39 1862.84 1860.51 1852.79 1851.94 1852.38 1855.95 1847.8 1843.69 1843.21 1840.91 1838.22 1834.78 1828.36 1824.02 1825.02 1829.9 1836.55 1830 1847.33 1835.66 1849.04 1858.07 1858.45 1850.92 1833.62 1823.73 1823.57 1821.2 1819.1 1816.23 1810.67 1809.17
2344.84 2330.39 2309.83 2291.26 2260.45 2216.25 2184.39 2186.78 2157.43 2134.18 2136.8 2122.14 2079.02 2057.75 2045.23 2015.7 1985.86 1965.43 1976.86 2001.18 2033.92 2065.81 2093.92 2123.09 2148.64 2164.21 2173.05 2177.92 2171.33 2148.97 2112.72 2069.22 2046.36 2013.78 1991.43 1965.3 1947.26 1940.96 1939.51 1938.91 1944.26 1937.81 1927.51 1924.77 1941.31 1941.51 1941.96 1939.91 1947.92 1941.09 1941.49 1967.42 1967.62 1953.14 1953.81 1947.37 1960.64 1984.73 1989.25 1993.39 1969.34 1966.85 1982.82 1993.95 2004.62 2032.8 2049.73 2051.3 2022.97 1987.64 1963.32 1948.65 1926.29 1911.33 1906.85 1927.09 1971.49 2016 2062.68 2089.72 2088.04 2075.62 2049.41 2053.64 2075.87 2083.35 2073.77 2045.89 2013.62 1994.62 1984.4 1980.73 1983.76 2005.65 2006.96 1994.52 1974.98 1976.42 1992.96 1992.32 1974.22 1963.99 1956.12 1959.16 1950.59 1941.2 1934.67 1930.16 1928.58 1928.11 1927.89 1930.14 1928.57 1924.34 1917.45 1900.99 1893.53 1895.09 1886.17 1881.14 1879.02 1873.56 1865.71 1867.9 1874.24 1873.67 1878.53 1881.51 1891.02 1916 1945.79 1961.35 1941.95 1920.55 1909.31 1905.48 1909.61 1905.33 1898.23 1893.81 1880.09 1878.35 1876.8 1878.09 1883.36 1884.49 1885.29 1885.73 1896.78 1900.7 1908.36 1913.75 1911.77 1904.02 1895.84 1907.51 1926.73 1903.9 1897.01 1890.37 1868.02 1854.52 1847.19 1859.54 1873.79 1866.06 1857.24 1869.68 1904.18 1928.63 1925.35 1909.15 1888.25 1890.51 1887.15 1883.91 1865.08 1841.4 1825.23 1811.92 1827.88 1840.54 1833.46 1843.91 1847.78 1816.43 1802.43 1794.02 1788.75 1787.27 1786.73 1786.05 1785.14 1784.17 1783.39 1782.7 1781.95 1781.16 1779.86 1781.38 1781.38 1781.13 1780.32 1779.53 1778.91 1778.76 1778.66 1778.34 1777.91 1777.18 1776.65 1776.18 1776.52 1779.01 1783.9 1790.71 1796.82 1799.84 1800.27 1804.47 1802 1800.21 1810.48 1812.79 1814 1812.01 1809.14 1804.89 1811.7 1819.73 1821.07 1822.7 1823.34 1820.32 1816.33 1814.18 1811.42 1803.18 1805.97 1817.67 1829.02 1830.48 1835.18 1839.2 1841.06 1842.96 1845.18 1834.01 1826.33 1835.88 1833.09 1814.9 1820.22 1806.66 1809.47 1809.29 1815.46 1818.48 1823.52 1825.22 1829.22 1835.03 1842.76 1846.49 1833.07 1826.91 1821.81 1818.03 1819.01 1823.27 1831.24 1840.29 1831.85 1831.39 1832.14 1834.83 1835.2 1836.64 1838.17 1842.19 1849.23 1855.39 1853.27 1850.26 1848.97 1846.44 1850.02 1860.18 1865.09 1872.04 1876.13 1883.55 1884.74 1886.94 1885.47 1884.64 1879.75 1883.65 1890.58 1891.23 1881.12 1892.36 1899.14 1900.95 1913.57 1913.43 1918.67 1922.16 1918.3 1921.82 1928.74 1932.56 1933.97 1919.6 1907.73 1908.81 1896.25 1885.51 1886.48 1887.99 1879.93 1883 1888.98 1897.25 1895.06 1877.13 1865.2 1869.83 1874.29 1874.2 1886.13 1908.91 1899.97 1906.07 1912.56 1900.47 1885.3 1881.77 1871.84 1867.52 1854.9 1866 1863.73 1871.19 1891.54 1881.29 1873.15 1862.34 1867.36 1860.96 1864.63 1856.1 1855.07 1851.51 1845.86 1854.38 1843.68 1845.46 1832.79 1829.06 1823.12 1822.9 1828.13 1826.8 1829.87 1839.65 1848.05 1852.72 1850.97 1843.59 1829.62 1822.91 1821.15 1819.81 1818.04 1813.56 1809.68 1808.39
